7.846412779046039176e-01 -8.564232281621083839e-03 1.268500825721368130e-01
7.846412779046039176e-01 2.238803393718117041e-01 -6.343315907010538268e-02
7.846412779046039176e-01 3.661416464344685040e-01 1.691653148837319459e-02
7.846412779046039176e-01 -4.407632800811258078e-01 -2.384896302838791782e-01
7.846412779046039176e-01 2.677152394002155211e-01 -2.366357087940501591e-01
7.846412779046039176e-01 3.580507062319467915e-01 -1.918424256225991498e-01
7.846412779046039176e-01 -2.094027811632710456e-01 -9.643905166581576149e-03
7.846412779046039176e-01 -1.926503878421308436e-01 -2.146112262362087630e-01
7.846412779046039176e-01 -1.919463297339701335e-01 -1.183856328616201062e-02
7.846412779046039176e-01 -2.371526865142072060e-01 -9.196240535806182725e-02
7.846412779046039176e-01 2.182419828068762613e-01 9.106756285809654294e-03
7.846412779046039176e-01 3.351607984588673705e-01 -9.893392262710629104e-02
7.846412779046039176e-01 -1.861063461143499520e-01 1.849867561839778074e-01
7.846412779046039176e-01 2.965489603050516787e-02 3.537784502462590353e-02
7.846412779046039176e-01 6.348765395329553085e-02 3.033225890779783773e-02
7.846412779046039176e-01 1.235643333331832294e-01 1.857723161372951681e-01
7.846412779046039176e-01 3.510798435961967057e-01 -1.769370801416964567e-01
7.846412779046039176e-01 -2.235929397700077148e-01 2.230798675869260506e-01
7.846412779046039176e-01 -3.253720512216898286e-01 2.448343773870277629e-02
7.846412779046039176e-01 -3.418544083088770891e-01 -1.888962484810118025e-01
7.846412779046039176e-01 -5.502650303722429748e-02 3.358971418088720073e-02
7.846412779046039176e-01 -9.836126322868271599e-02 3.316420253950696367e-02
7.846412779046039176e-01 -1.469596024240147347e-01 -1.257365736010006285e-01
7.846412779046039176e-01 2.502456953050259947e-01 -1.164113223218289639e-01
7.846412779046039176e-01 2.823630568147287440e-02 -8.074395459139530051e-02
7.846412779046039176e-01 6.800691490140092776e-02 -2.395835225188736317e-01
7.846412779046039176e-01 4.035473928782640218e-01 -1.925353549647545182e-01
7.846412779046039176e-01 1.353640984653045887e-01 2.663325347761465872e-02
7.846412779046039176e-01 -1.116339532732741474e-01 2.432147511403919549e-01
7.846412779046039176e-01 1.086115269384342608e-01 1.343309045442487304e-01
7.846412779046039176e-01 7.951183786935024644e-03 2.087106667741625010e-01
7.846412779046039176e-01 -1.099030327078290292e-02 7.655820704411142597e-02
7.846412779046039176e-01 3.122676175193158654e-01 1.788866193060345555e-02
7.846412779046039176e-01 8.578315469503143553e-02 2.266266707761540045e-01
7.846412779046039176e-01 1.152792943588626801e-01 -2.410976893288928335e-01
7.846412779046039176e-01 -8.144285023243505450e-03 9.702760821103159627e-02
7.846412779046039176e-01 2.453084509984263528e-01 5.137839200711188936e-02
7.846412779046039176e-01 -1.283981299937140830e-01 1.402305232698755448e-02
7.846412779046039176e-01 -1.393020294624064404e-01 -1.567920497721668749e-01
7.846412779046039176e-01 3.933868295153982175e-01 1.053375232505405212e-01
7.846412779046039176e-01 -2.151877054511898424e-02 3.604229781847350517e-02
7.846412779046039176e-01 1.458955115894656207e-01 2.058626846267397892e-01
7.846412779046039176e-01 -3.753663959173962339e-01 -1.073151926957082447e-01
7.846412779046039176e-01 6.808121578031886556e-02 -5.738500206285605115e-02
7.846412779046039176e-01 -1.224969381610645502e-01 -1.839338007925764851e-01
7.846412779046039176e-01 1.903071435502632913e-01 -2.130135936811495823e-01
7.846412779046039176e-01 4.299314058603696531e-01 -2.403599176060689513e-01
7.846412779046039176e-01 2.164908387442729398e-01 -1.272926369418634351e-01
7.846412779046039176e-01 -6.476580987512364773e-02 -1.240764235663232296e-01
7.846412779046039176e-01 6.190547541562462647e-03 -2.124060939839174655e-01
7.846412779046039176e-01 -3.078838500776089893e-01 1.661428094871301164e-01
7.846412779046039176e-01 9.539251682398618148e-02 1.090198355317157919e-01
7.846412779046039176e-01 -7.981059224774017524e-02 5.614674092374834918e-02
7.846412779046039176e-01 1.354099227959147944e-01 -4.363305697052772755e-03
7.846412779046039176e-01 3.401344450482771814e-02 2.493728865411057594e-01
7.846412779046039176e-01 -2.565501256614964309e-01 -9.144884553858059761e-02
7.846412779046039176e-01 -3.512284297684838963e-01 -2.369960844226345065e-01
7.846412779046039176e-01 -3.292062384271730036e-01 -2.378906408194746691e-01
7.846412779046039176e-01 -1.876411338731437395e-01 -8.502263780379729075e-02
7.846412779046039176e-01 7.956642961446605544e-02 -7.389027131534847692e-02
7.846412779046039176e-01 2.368476429845510212e-01 3.641412952971036232e-02
7.846412779046039176e-01 1.089381889523554081e-01 -1.430522788719988114e-01
7.846412779046039176e-01 -1.859708370224026908e-01 9.780825841464077519e-02
7.846412779046039176e-01 -1.054064267433506841e-01 -3.344702638539241712e-02
-3.912414860008075479e-01 6.647611339220622639e-01 6.080386565654485181e-03
-1.928329359080859784e-01 7.793124682647432078e-01 -6.294473915624650834e-03
-5.804416368574134566e-01 5.555264038801039916e-01 -2.870977255024142333e-02
-5.028937767991001895e-01 6.002987387861331570e-01 9.621324439275932838e-02
-2.867826331583715471e-01 7.250705354381203893e-01 1.059122912830511021e-01
-2.967379689834332424e-01 7.193228551130148585e-01 -1.016562151819982163e-01
-4.726408810469064359e-01 6.177650097148503772e-01 -1.069571082836544007e-01
-1.156035549475134677e-01 8.239008512150371999e-01 -1.143943971416866157e-01
-6.613536574158083159e-01 5.088117719894975632e-01 6.039956612102028582e-02
-3.954704170828327037e-01 6.623196790504812803e-01 1.362525805800513246e-01
-6.612034190747364537e-01 5.088985109010095709e-01 -1.241222478969334353e-01
-1.029887713638253377e-01 8.311839739322310905e-01 6.735373560776232449e-02
-1.912618160014512569e-01 7.802194626941776345e-01 1.170796806527520106e-01
-5.660613072786444544e-01 5.638287906367269731e-01 -1.402838346698495053e-01
-2.089964865808853767e-01 7.699803433359799776e-01 -1.406779239130970527e-01
-3.839567267003777817e-01 6.689671528387823862e-01 -1.451012810835682898e-01
-5.882471569435632208e-01 5.510199082812399229e-01 1.237981821534987759e-01
-4.942287231973622741e-01 6.053014464221759816e-01 -1.030017504424881117e-02
-2.823906983860330344e-01 7.276062575040993519e-01 -8.055437477644408761e-03
-6.892282704093337653e-01 4.927182670792022434e-01 -3.243496331220187268e-02
-7.529712837609352227e-02 8.471717555654756371e-01 -2.754976235250943678e-02
-4.648864223577223731e-01 6.222423741321123636e-01 1.721994767272070903e-01
-3.286569064699541021e-01 7.008946005581309091e-01 1.749502458304066921e-01
-5.644734942230016372e-01 5.647456045655776524e-01 4.856674200753013232e-02
-6.388130567115601899e-02 8.537626035738083985e-01 -1.720626806313621526e-01
-2.415923148938481091e-01 7.511612727043206483e-01 1.687122451677723900e-01
-4.344318995508439363e-01 6.398251697872383570e-01 7.263957214364658022e-02
-3.526672191264524359e-01 6.870320859152569959e-01 7.473243478594296385e-02
-3.617911706675864258e-01 6.817642517949695780e-01 -6.886039639758678721e-02
-5.320108837854558015e-01 5.834880831017885683e-01 1.671479989107291508e-01
-2.344771056166759793e-01 7.552690966268760242e-01 -7.008063285840640533e-02
-2.322817928638011287e-01 7.565367940015419457e-01 6.007421337368799158e-02
-2.712213451164488531e-01 7.340547227708931199e-01 -1.746121499965242463e-01
-5.046727427767168095e-01 5.992716191471707532e-01 -1.764572339368784271e-01
-7.102724396087642944e-01 4.805686004512074727e-01 -1.755230722257251907e-01
-1.504146623288311890e-01 8.038026271260594324e-01 -1.786041038259653657e-01
-1.282068824485490532e-01 8.166242748307876997e-01 1.331980616282355812e-01
-1.697842795611070876e-01 7.926195265572923976e-01 -7.213454481968414878e-02
-5.319221809740604101e-01 5.835391444987541032e-01 -7.808614341600489395e-02
-4.377505630369625811e-01 6.379090581344384336e-01 -4.441377065035015392e-02
-6.201667490633784308e-01 5.325909990930615123e-01 -1.801012501703293800e-01
-4.403474933159709503e-01 6.364099478901910079e-01 -1.797830983892358403e-01
-6.487807703629637768e-01 5.160706732747972758e-01 1.321506483571457946e-01
-5.404118530591428549e-02 8.594438386195291102e-01 -9.219676407746818514e-02
-7.132713147305536072e-01 4.788370953874370728e-01 1.031140612660051969e-01
-1.330253108122095018e-01 8.138424106461026319e-01 3.800298801150802513e-03
-6.356416255104362367e-01 5.236568912073125137e-01 -6.836119490553219449e-04
-3.352061852640904616e-01 6.971131113328494777e-01 -1.845340995235698889e-01
-7.148637102192572090e-01 4.779176629254085484e-01 3.213904680042778406e-02
-5.392596984609440008e-02 8.595106112155608269e-01 1.023857817259505032e-01
-7.145953105685405315e-01 4.780728110161887590e-01 -9.244257887952708752e-02
-6.075680039954038936e-01 5.398649569441331675e-01 -9.457635610272541182e-02
-5.332927159822041518e-02 8.598549483284316786e-01 3.351541330196926988e-02
-4.133582718531637057e-01 6.519918568808884540e-01 1.997569198895805254e-01
-1.708012523840058416e-01 7.920323204921875249e-01 5.421033563882101530e-02
-3.369648576095797821e-01 6.960977750931867103e-01 -8.323182495066777653e-03
-6.093188207413600121e-01 5.388542031375316288e-01 6.754619779632504983e-02
-4.201622029988338336e-01 6.480637297976543643e-01 -1.008061738491793646e-01
-1.955679938122193151e-01 7.777334927585752844e-01 1.739725510051738366e-01
-1.220081597835805665e-01 8.202031550514430336e-01 -5.815648740034314729e-02
-4.477707075581728868e-01 6.321240637115503880e-01 1.319625047612101032e-02
-3.067502579051103462e-01 7.135421158065406999e-01 4.920042703653949856e-02
-6.457285426276786477e-01 5.178329461034059111e-01 -5.641876332027567081e-02
-5.507589267046693049e-01 5.726637215783696444e-01 -1.954697487070421180e-01
-2.843297222041381023e-01 7.264868345706221309e-01 2.008694691734662363e-01
-2.412623797134547943e-01 7.513517709930002120e-01 1.111202264568980635e-01
-2.255060109497915855e-01 7.604485552524153924e-01 -1.953146006162619630e-01
-3.666655701779207854e-01 6.789499832622101216e-01 2.094346911978033077e-01
-5.797441250821970815e-01 5.559290033561790079e-01 1.766840421107076231e-01
-4.418708249921122211e-01 6.355304480591228433e-01 1.239395829450959108e-01
-2.486322413421606092e-01 7.470966545791977165e-01 -1.234600863196163301e-01
-3.490192750932348820e-01 6.891383685400893633e-01 1.270271608782803929e-01
-5.098934432998050159e-01 5.962573601429623782e-01 4.666274107067716614e-02
-1.061945106066546352e-01 8.293329982922268417e-01 -1.991700634038141571e-01
-5.415443084522564288e-01 5.779839263622115197e-01 -5.381587786540407634e-03
-3.453232155128766467e-01 6.912721457632875488e-01 -1.140955570427787946e-01
-3.984057927750619954e-01 6.606248334511992670e-01 -1.947116833520908807e-01
-6.642376443944246756e-01 5.071467122051118714e-01 -1.998040757494707331e-01
-3.042993108507601185e-01 7.149574329891008606e-01 -5.140034448516651866e-02
-5.469574711639075826e-01 5.748583796979500615e-01 1.002585508356965138e-01
-2.375332611517277925e-01 7.535048598983842272e-01 -1.402471117291481315e-02
-1.655412738632516256e-01 7.950691643450535917e-01 -1.288467363828429968e-01
-4.910527697694295757e-01 6.071350742798775624e-01 -5.819805661453952145e-02
-5.006058334350631522e-01 6.016197887742951167e-01 2.024965602267748688e-01
-3.725082325369709346e-02 8.691376484434654159e-01 -4.602809635441733327e-02
-5.229465038741150096e-01 5.887212216574710943e-01 -1.291832178961805910e-01
-8.609399530114637822e-02 8.409380100192549445e-01 1.372944294681384680e-01
-7.315797713925564771e-01 4.682667315822574006e-01 -1.534968896084342588e-02
-5.973697992181083993e-01 5.457527287942469663e-01 1.679116921248962474e-02
-3.945902626184700224e-01 6.628280018036072363e-01 8.571423561667257385e-02
-2.899952460507924101e-01 7.232156319983495951e-01 1.515500514043182645e-01
-6.239538026716626717e-01 5.304048512063088694e-01 1.705409632757657334e-01
-6.751372887467033124e-01 5.008540496623925531e-01 1.609954913692314762e-02
-9.249892745386067983e-02 8.372403138556607782e-01 2.051930582427499011e-02
-7.321175526439316350e-01 4.679564354006970350e-01 -1.373929740416415524e-01
-1.543454079452429850e-01 8.015330134942666440e-01 1.740137929027229524e-01
-3.452132973256644144e-02 8.707136780998083747e-01 -1.315719747875598311e-01
-1.414694256770768210e-01 8.089673565024739776e-01 8.700713637317411542e-02
-3.953941523040314654e-01 6.623635394812081856e-01 -4.271663383453741525e-02
-4.962322283949687773e-01 6.041447093909160238e-01 1.414556060041900210e-01
-3.359273240441586206e-02 8.712498227679474905e-01 -2.076184333850953079e-01
-4.504979098627729939e-01 6.305496706384434713e-01 2.160838015693404002e-01
-6.885500703163029979e-01 4.931100651059193152e-01 1.403502576865430507e-01
-4.722857424846775287e-01 6.179702372526545417e-01 4.973035268838148226e-02
-1.855570141571310505e-01 7.835132501151078621e-01 -2.076256343513340485e-01
-3.071230715662888744e-01 7.133270687693198386e-01 -1.493302121655934733e-01
-1.589055834742503226e-01 7.989004057007118575e-01 -3.153877033212563324e-02
-4.739936807498483784e-01 6.169840321945940786e-01 -2.069939132222079758e-01
-5.721153559855436388e-01 5.603337034777591263e-01 -7.606627238603758112e-02
-2.963808665213210070e-01 7.195290646007606039e-01 -2.071618266622295701e-01
-6.228294699884771024e-01 5.310539201177373325e-01 -1.339008327324986425e-01
-5.893760720598095748e-01 5.503682208366336148e-01 -2.090749924652045844e-01
-6.763113735602654941e-01 5.001761768860091273e-01 -7.982583139595564314e-02
-3.558765588524010481e-01 6.851791463753695854e-01 2.687153999678761757e-02
-7.700899444103097291e-02 8.461835866075317902e-01 -1.278922810395623777e-01
-3.173628455577808261e-01 7.074150754873123059e-01 2.220406372320166410e-01
-7.354987336096685535e-01 4.660043189167033528e-01 -2.091862801252578896e-01
-3.221407468634387289e-02 8.720458568539757316e-01 -4.242198537583017140e-03
-2.077929432690737155e-01 7.706752365780187297e-01 -9.410272891420445873e-02
-4.709044662334278541e-01 6.187675806052717054e-01 -1.557570745336712414e-01
-2.701336718977515594e-01 7.346828434168999333e-01 3.916784448273497032e-02
-3.656744553701520295e-01 6.795221327615430518e-01 1.631589909311129960e-01
-9.249205380426915590e-02 8.372442416554273237e-01 -7.922225949849015514e-02
-7.379725928293239257e-01 4.645759090682545778e-01 -5.698174795348646265e-02
-7.356561729169792674e-01 4.659133248887774026e-01 6.727321571254726851e-02
-2.028138024316304411e-01 7.735500586905130760e-01 -5.126876319298585144e-02
-3.119251943038407748e-02 8.726356814522582273e-01 7.001514726627214302e-02
-2.644203598206037453e-01 7.379812132708913897e-01 -4.343051144211457215e-02
-1.187487406106079030e-01 8.220848984562851847e-01 -1.553518565244183525e-01
-2.239381642096290315e-01 7.613539130986135550e-01 2.015103551687142946e-01
-6.749261695092492186e-01 5.009758114551567942e-01 9.980947239571674734e-02
-4.057291754398631989e-01 6.563965570024683505e-01 4.882401289224155838e-02
-3.600694851032325006e-01 6.827583124525633540e-01 -2.114915712715971507e-01
-3.828929475969271579e-01 6.695811988689588379e-01 -1.022663334124080392e-01
-4.209680565842786049e-01 6.475986128419608523e-01 -1.435609289417718037e-01
-6.952250387029701439e-01 4.892562389016031910e-01 -1.352127178545386443e-01
-4.657819607045041166e-01 6.217252138295117359e-01 9.233650602313803191e-02
-5.193650051202820528e-01 5.907888809179318024e-01 -3.837477850922286354e-02
-2.011294309650590861e-01 7.745225164493905190e-01 7.703838056557665848e-02
-1.346762959807648319e-01 8.128892645694110186e-01 4.416204188595020119e-02
-2.012888341722530727e-01 7.744305404715228214e-01 3.484464620631169685e-02
-3.234506078793432660e-01 7.039003493295115099e-01 9.635726371753416952e-02
-4.304111418564478542e-01 6.421464994492911416e-01 1.616595533702183951e-01
-6.382879806031742653e-01 5.221289770981103473e-01 9.363988091235048161e-02
-7.398033350434528310e-02 8.479321121369571834e-01 -2.160383268180686711e-01
-2.585093484885376824e-01 7.413941439514080134e-01 -2.136917937741802387e-01
-5.544301102198392339e-01 5.705443462876487182e-01 2.023188272873367444e-01
-3.260259352596353577e-01 7.024133498012110621e-01 -7.895451448106777237e-02
-2.169542089079903591e-01 7.653861268756623204e-01 1.433897200725868237e-01
-6.155362004552198396e-01 5.352645214675184615e-01 -3.062621151968861199e-02
-6.950522155132401458e-01 4.893560704790039240e-01 6.484158034038281504e-02
-5.573052596489806998e-01 5.688841962529713747e-01 1.377795127393119379e-01
-1.027521214278884626e-01 8.313204649741197105e-01 1.039935610970734170e-01
-5.181915749400143323e-01 5.914667536943154502e-01 -2.135307539837501545e-01
-6.338449844338700512e-01 5.246938303456913921e-01 3.981887729404675474e-02
-6.503541814861291126e-01 5.151623695787739265e-01 -1.642957839095838812e-01
-6.956908704982101010e-02 8.504786356522944235e-01 6.728696301173034411e-02
-1.654309681531399845e-01 7.951329910912607879e-01 1.549892308928256350e-02
-6.970030227306451831e-01 4.882297738959351374e-01 -2.131022964925449736e-01
-2.588337192859283542e-01 7.412069188292007560e-01 8.031187435437955879e-02
-2.399671877404227771e-01 7.520993622152405411e-01 -1.582865775833531830e-01
-5.794380840170505476e-01 5.561057543456755514e-01 8.198315315506227163e-02
-4.265249113040573414e-01 6.443902550659539319e-01 -2.159902112709279620e-01
-7.427085373978858929e-01 4.618415057974157301e-01 1.182629303324362890e-01
-2.661898336154511213e-01 7.369599853315786930e-01 -8.558169463724146775e-02
-1.352245513648509256e-01 8.125727493715535488e-01 -2.180235022834310921e-01
-1.079014669218838485e-01 8.283477751841079595e-01 1.653048788702582983e-01
-4.216007596633462584e-01 6.472333274636683509e-01 -1.183529011968983274e-02
-6.300324001271031538e-01 5.268950347982161997e-01 -2.167273283604574385e-01
-1.599127367977326297e-01 7.983187640186097944e-01 1.302911624843141325e-01
-3.685260380006941117e-01 6.778760573426958480e-01 -2.194446476894278825e-02
-1.806325351997727924e-01 7.863563225128222811e-01 -1.661137005682191414e-01
-1.385288129184921169e-01 8.106648206349338359e-01 -8.825554432834550878e-02
-5.846584572234916344e-01 5.530918226581145181e-01 -1.707976017898739651e-01
-4.456843912488208659e-01 6.333285889733037965e-01 -8.073184387544835028e-02
-6.406027639322826595e-01 5.207925432275291033e-01 -9.504965597459910653e-02
-3.929821559306999612e-01 6.637562718151104324e-01 2.296510765964258627e-01
-2.455669209409868103e-01 7.488664556906923231e-01 2.066136124916656547e-02
-7.433441863267784555e-01 4.614745838358870755e-01 -1.732613141934655765e-01
-5.350909334357543123e-01 5.817097717574664095e-01 -1.644803904986134324e-01
-4.662418405938420496e-01 6.214597600286198009e-01 -2.224592340102831203e-02
-2.549808750315538108e-01 7.434313627636777166e-01 2.141441231179409821e-01
-5.534514334446645201e-01 5.711092948207427966e-01 -1.064327470148150601e-01
-2.648112361036313034e-02 8.753556827906197046e-01 1.161877427890895542e-01
-5.255516170693037559e-01 5.872172016635155423e-01 1.275603596965945996e-01
-2.613678649749235500e-02 8.755543639954792567e-01 -8.190920185548275501e-02
-2.539508697490186484e-02 8.759828214866844931e-01 -1.710548726745854120e-01
-5.038495414089696478e-01 5.997468829189276374e-01 -9.752777031066819924e-02
-3.489675590629747748e-01 6.891681543549859068e-01 -1.542481447900074520e-01
-3.114397235097678407e-01 7.108345525007733201e-01 1.616664904960230659e-02
-3.172613773971439954e-01 7.074736651671638121e-01 1.344667409528431390e-01
-1.097697903441903350e-01 8.272689395148853375e-01 -2.108198540352973840e-02
-6.606882226720189877e-01 5.091960417333285527e-01 1.646633382417156954e-01
-7.439143719262280019e-01 4.611453032887881665e-01 1.843953584786725899e-02
-5.524671922864872187e-01 5.716775165203091813e-01 -4.685686210516718658e-02
-2.616309673530325952e-01 7.395919384918392403e-01 1.361897357837859590e-01
-6.191507581904214241e-01 5.331778778415190434e-01 1.301019734622235191e-01
-5.381959193574933908e-02 8.595718194285901781e-01 1.398753212314332306e-01
-7.438724753953844804e-01 4.611695247206821779e-01 -9.946712144542046996e-02
-6.590087609551560366e-01 5.101655536423810311e-01 -2.318237632871206211e-02
-5.931317032699610081e-01 5.481997480488305374e-01 -1.247107632286270085e-01
-1.722938162953088492e-01 7.911704957600689259e-01 9.001124856131859087e-02
-6.708115321433544276e-02 8.519152284169235756e-01 -6.050400239417320220e-02
-3.375654836572203887e-01 6.957511467637855773e-01 -4.542550640689346775e-02
-5.348745771319447506e-01 5.818344794000556153e-01 6.709450082316759101e-02
-7.059390945162773434e-01 4.830702815858761157e-01 -6.012987946640584863e-02
-3.283096235072583968e-01 7.010949183462269474e-01 -2.183390355313468978e-01
-7.050991999995221970e-01 4.835553648570495855e-01 1.599094348626087757e-03
-4.448464606319489367e-01 6.338123629778882329e-01 -1.215734331650657751e-01
-3.965986775657848185e-01 6.616683189225223138e-01 1.705259067099938186e-01
-2.209049810461344993e-02 8.778904229066568643e-01 3.522007840066796597e-02
-4.721842743240406981e-01 6.180288269325062700e-01 1.260249173045063509e-01
-6.064643524672451436e-02 8.556302723628204099e-01 -2.388604364401242589e-03
-4.145575600485615908e-01 6.512995821720275469e-01 1.107974922427435449e-01
-4.243273073346519597e-01 6.456592617072087759e-01 2.316774939593374827e-01
-3.751460171906290109e-01 6.740539808531595956e-01 1.116269126267878109e-01
-4.777041422626840950e-01 6.148417447385681189e-01 2.226366808465962133e-01
-3.765878470216136309e-01 6.732216146192904205e-01 5.477823002174005140e-02
-5.980558549106722577e-01 5.453570029677632380e-01 -6.085259462345782994e-02
-4.170333831681001802e-01 6.498701903736370245e-01 -6.688111263187421218e-02
-6.802385186935580030e-01 4.979088544707467867e-01 -1.675578216157342371e-01
-3.710673244496757728e-01 6.764086968132285715e-01 -1.790849319807250595e-01
-5.659650761843630917e-01 5.638844344667535147e-01 1.378705702434510072e-02
-2.761494245569265371e-01 7.312096864732955392e-01 -1.413286294077616134e-01
-6.079758405378345998e-01 5.396296162747851177e-01 9.818663645882194646e-02
-7.184157504748407419e-01 4.758670241306030002e-01 1.420650696013054382e-01
-4.936539551648517210e-01 6.056333455024525136e-01 -1.295681422733060972e-01
-5.262618941937613481e-01 5.868070739045545547e-01 2.162307667439402614e-01
-4.760642858601341065e-01 6.157886717989629055e-01 1.771812995740414121e-02
-1.700441689789962130e-01 7.924696155328676550e-01 1.924384469744875592e-01
-3.483217633180184514e-01 6.895409680161643795e-01 2.331160506238499075e-01
-6.038601610157459110e-01 5.420059351335702047e-01 1.945270545003701113e-01
-3.347633258404078549e-01 6.973687456343247160e-01 4.739462109385118860e-02
-2.866193021514110151e-01 7.251648026325183682e-01 6.951893522909330381e-02
-1.371514644670089877e-01 8.114602000876678378e-01 -1.349053675228032156e-01
-5.940092392011460110e-01 5.476930618789408456e-01 1.548327100592432615e-01
-5.845399685971994774e-01 5.531602318373824989e-01 4.907441012736147440e-02
-5.381428338543923218e-01 5.799478262455048938e-01 3.028119751083222996e-02
-9.128163684286595692e-02 8.379430626972323992e-01 -1.718126107128894464e-01
-2.183613431743701150e-01 7.645737269572732142e-01 4.466060861587269407e-03
-2.065003698292194045e-01 7.714215185336701364e-01 -2.225299978822951052e-01
-4.025839897767687359e-01 6.582125097612203657e-01 -1.727238602587376215e-01
-5.081678299356846562e-01 5.972537120170866576e-01 1.712060707029077755e-01
-4.305541792312809757e-01 6.420640156541927990e-01 3.423387334260746817e-02
-2.326568977415101880e-01 7.563201103810854864e-01 -1.059915241743684677e-01
-2.722193335738091191e-01 7.334786454717938664e-01 1.688624835088443354e-01
-3.864633175847546065e-01 6.675200859414422982e-01 -7.120431090829748566e-02
-2.943184443272157114e-01 7.207198425633307703e-01 2.220013592343507147e-01
-2.010063599057060613e-01 7.745935441618363448e-01 2.063153635498388982e-01
-9.562349216818052944e-02 8.354361444962083993e-01 -4.952252888009078119e-02
-5.154322956039869563e-01 5.930598038163135133e-01 1.170728704793736613e-02
-1.851095723003873539e-01 7.837715029497609454e-01 1.515219021726577076e-01
-3.041742758915237932e-01 7.150294426514880453e-01 -1.701016631216802077e-02
-2.169379032818817901e-02 8.781198718763549849e-01 -1.098149099304935594e-01
-4.927688909507808579e-01 6.061442867887560926e-01 6.004410024214416192e-02
-4.635506431204355904e-01 6.230135321529521875e-01 -5.616869340180297848e-02
-6.964593497796200960e-01 4.885436705606148733e-01 -1.085318286734085202e-01
-3.009403874170339388e-01 7.168967841238531591e-01 -1.764935660847193610e-01
-8.275929329931412670e-02 8.428636138548242229e-01 9.273517769944664146e-02
-6.717924399288073278e-01 5.027852178809644190e-01 -5.286901428122279395e-02
-3.058962887725248936e-01 7.140350546772473717e-01 1.777088705331395790e-01
-5.723078181741063641e-01 5.602224158177058211e-01 -2.207317202224927388e-01
-2.087493625122376351e-01 7.701230533941660905e-01 1.020843230938649759e-01
-2.103237555853445240e-01 7.692140950648485020e-01 -1.765708128134622357e-01
-3.403005415613536977e-01 6.941718439409703123e-01 1.979213281319955886e-01
-1.628968826703970085e-01 7.965960965043141773e-01 -2.231604097448322832e-01
-1.502058343079076541e-01 8.039230796522347511e-01 -6.054197112525021990e-02
-4.492331583379320925e-01 6.312795867617342349e-01 -2.201968848209424900e-01
-1.344193524127006156e-01 8.130375390105994970e-01 1.802858344966677684e-01
-7.453967890214674430e-01 4.602896975729667273e-01 9.273026794973837639e-02
-3.826795371429426162e-01 6.697042699283120015e-01 -2.269772491680130677e-01
-1.868771424016036839e-02 8.798553047398920413e-01 -2.914641295762701589e-02
-2.922115070690891048e-01 7.219361512243840373e-01 -7.374690662386804152e-02
-4.031855977743509234e-01 6.578652267985245494e-01 -1.215933994805459273e-01
-4.363542302199409639e-01 6.387152390365302690e-01 1.911075774869089861e-01
-1.889785152767275989e-02 8.797338702637749197e-01 9.429353225683997919e-02
-3.167124673797634959e-01 7.077905076816686236e-01 -1.211024245097225560e-01
-2.190529632499365886e-01 7.641744006476702822e-01 1.699809244923799478e-01
-1.758222897522927208e-01 7.891336042644463422e-01 -1.092970949945985260e-01
-6.106022293150923375e-01 5.381131582482354681e-01 -5.818555510573187456e-03
-2.393763811921986728e-01 7.524404261616390865e-01 -2.302081917926779853e-01
-6.225564879046994182e-01 5.312113594250478243e-01 -6.794030930226380161e-02
-7.511510156795171422e-01 4.569674336037286011e-01 -3.303689862643128389e-02
-2.135959401075586128e-01 7.673248233771199356e-01 -2.907734914506453910e-02
-4.939675245128842263e-01 6.054523393965423050e-01 -2.219823971315034450e-01
-1.139381678464806424e-01 8.248621802079094678e-01 3.817312919184687875e-02
-4.459066392522801903e-01 6.332002808475951650e-01 -1.510077099825732905e-01
-1.345434054219953324e-01 8.129658566648594320e-01 -2.502255051935801250e-02
-3.840424836619482640e-01 6.689177280250528934e-01 1.977442498258519255e-01
-5.751328881562240980e-01 5.585913969646305599e-01 2.024916504770665759e-01
-5.626572141476025024e-01 5.657943271032563892e-01 -1.714938042985014732e-01
-4.152102294431094243e-01 6.509228407110823067e-01 1.832268380481128292e-02
-7.659853936542262987e-02 8.464205638601158821e-01 4.088691151391116857e-02
-9.572397837887570982e-02 8.353782094496511323e-01 -2.219591576495511531e-01
-6.939982559092061631e-01 4.899645521261776215e-01 3.644326071131255562e-02
-6.078373855960623739e-01 5.397094815367058374e-01 -2.248218690460985492e-01
-2.913634296361535259e-01 7.224258169286184028e-01 2.614751557314677274e-02
-5.566097117736477085e-01 5.692858137791050321e-01 1.650895045163904284e-01
-3.683751450263277327e-01 6.779631235708551973e-01 2.343716372825688787e-01
-6.602908602622992174e-01 5.094254907030266732e-01 -2.278233627010653461e-01
-2.331380532129170846e-01 7.560422185475992318e-01 8.162539605965565825e-02
-3.605123445269152183e-01 6.825026781510878937e-01 -9.681061953661890263e-02
-3.438951329810750468e-01 6.920966563976236330e-01 1.592649047791893091e-01
-3.684749766037284657e-01 6.779055158409452719e-01 -1.248014299399057281e-01
-2.619864332319087330e-01 7.393867109540348537e-01 1.079753681104508312e-01
-5.760843976496796692e-01 5.580421596306028853e-01 -1.041225461187675616e-01
-4.803796285370242614e-01 6.132971374803579678e-01 -1.799830888606845647e-01
-4.802604852774377542e-01 6.133662012929204099e-01 1.976892606291197063e-01
-5.540707767474486317e-02 8.586553328163866183e-01 -2.353653294099932250e-02
-2.652396333885843061e-01 7.375082407156647868e-01 -1.843006592778919164e-02
-2.475380217905189806e-01 7.477283757083239557e-01 -1.837171171721198037e-01
-4.194970955716917915e-01 6.484476722248382341e-01 1.378024249046170546e-01
-6.561267378764228386e-01 5.118296314768251420e-01 3.530616267888566501e-02
-1.944348837858111967e-02 8.794189916491537140e-01 -2.269923057337849825e-01
-6.461190313878066860e-01 5.176077522501214556e-01 1.831711307418730506e-01
-7.507719830020416207e-01 4.571860811240686662e-01 4.002541409843979325e-02
-2.783270622108516834e-01 7.299521359146932120e-01 -2.282125421946046284e-01
-4.516579200605049804e-01 6.298796534615931364e-01 1.552045417704801533e-01
-5.410831192963296843e-01 5.782500347963976939e-01 -2.253511400646461271e-01
-4.434216512666195320e-01 6.346349097123411553e-01 9.619426002722078484e-02
-3.291649019064327164e-01 7.006013248422258144e-01 -1.453225471370860056e-01
-8.221758424817234012e-02 8.431762012529151473e-01 -1.026640231387749569e-01
-1.266154689097869490e-01 8.175430526595219849e-01 -1.827803369277888335e-01
-3.715975774181649594e-01 6.761026557480818155e-01 1.388815878904868240e-01
-3.351960384480268118e-01 6.971190030324991849e-01 1.792008432873614526e-02
-1.768372986753082299e-01 7.885477074659306140e-01 -4.987930402555576515e-02
-2.274764571660293500e-01 7.593111299033412642e-01 -1.309906604221049986e-01
-5.484867547459509884e-02 8.589777397138940174e-01 -1.244590567269182602e-01
-5.636525840717849789e-01 5.652195590707458361e-01 -7.631562419500264108e-03
-7.129511990495767115e-01 4.790220292931138824e-01 -3.206313160096497389e-02
-8.576471475404751077e-02 8.411281809912871665e-01 1.642306256340967663e-01
-6.390836873725551648e-01 5.216694245254196449e-01 6.637865931570710587e-02
-3.461876587781729242e-01 6.907729878762838283e-01 9.956398491030507558e-02
-2.756136072054346520e-01 7.315190007049143794e-01 -1.135315904596263803e-01
-1.162699716412443768e-01 8.235159268379117492e-01 -7.995021172189759051e-02
-1.454175190757910352e-01 8.066875960546175950e-01 1.145308659208843505e-01
-3.205188326702334001e-01 7.055929037122632419e-01 7.474880061830369016e-02
-6.119651758340978187e-01 5.373262890283292403e-01 3.587569364504078484e-02
-2.423798387470487703e-01 7.507066298813382943e-01 -4.732230637750770713e-02
-5.278703281981786954e-01 5.858784765764037950e-01 -1.869110730156493816e-01
-7.162387674542098903e-01 4.771239200559108107e-01 -1.201011628858901226e-01
-5.173229367645564014e-02 8.607769993236380479e-01 -2.287306844471469203e-01
-4.862916218190319051e-01 6.098838794831940024e-01 -3.154040691536171698e-02
-1.006756246179528747e-01 8.325194258528703095e-01 -1.372793951650577715e-01
-4.744270479907618521e-01 6.167339622761214279e-01 -7.962649555780138000e-02
-6.430343993044471684e-01 5.193886821276214594e-01 -1.877084163682664897e-01
-7.178972809056511917e-01 4.761665188628051992e-01 -2.286305255530989289e-01
-6.081997251245299108e-01 5.395003261991351273e-01 -1.567707741900978557e-01
-4.196843206938991044e-01 6.483396577312570130e-01 -1.913030077879878943e-01
-5.252177540891438401e-01 5.874099911687256093e-01 9.170871269377861568e-02
-5.578950842472631955e-01 5.685437869398672905e-01 7.093883484471447121e-02
-1.558540705785117775e-02 8.816463814334556393e-01 -5.504239681873418499e-02
-7.531234257956380684e-01 4.558283716714184863e-01 -5.737380982063753493e-03
-7.529908625535159938e-01 4.559052910835141303e-01 -1.504512716823068197e-01
-6.820878577503259876e-01 4.968408202508824423e-01 1.677142567104120963e-01
-5.665961426801946477e-01 5.635201310384025941e-01 1.157615765144149045e-01
-1.895077260890230264e-01 7.812321804006625570e-01 -1.305864243627937737e-01
-7.545361244450206062e-01 4.550130259032044711e-01 -7.835585233331052168e-02
-5.125761305403839785e-01 5.947084977683383400e-01 -6.269800588045917888e-02
-1.423129808832035437e-02 8.824280135870063990e-01 -1.925314271649879450e-01
-1.556969585878482595e-02 8.816555462995776526e-01 -1.497943471713451546e-01
-3.563960103715321792e-01 6.848793243265201003e-01 3.602008389151359000e-04
-2.962388110964294663e-01 7.196108937625644852e-01 1.264445372462367212e-01
-2.833382800797221157e-01 7.270593113866019586e-01 -2.864267263756226090e-02
-5.190812215871463131e-01 5.909528665581869067e-01 1.877915325339680752e-01
-1.618298304004742449e-01 7.972121064343737906e-01 -1.564365838932907649e-01
-1.923841847847534703e-01 7.795717030493378719e-01 -7.198627037849547605e-02
-4.118981122899350589e-01 6.528350245641156846e-01 7.288964206211928643e-02
-2.398126942829370278e-01 7.521887196599303937e-01 1.426237991181024678e-01
-4.069913084315264218e-01 6.556679501457665094e-01 -2.299244082595420791e-01
-1.167095578984548854e-01 8.232622564363196727e-01 8.209084033199620656e-02
-2.738274402615792358e-01 7.325503754602904483e-01 2.341258224805099486e-01
-5.062304427008157415e-01 5.983721530006222977e-01 -1.461202178063503720e-01
-7.545027381470046368e-01 4.550323375853901897e-01 -1.944606314836765382e-01
-3.678930076049791720e-01 6.782416700376356911e-01 8.951994627384804448e-02
-7.520141496782246637e-01 4.564689303500193418e-01 -2.281814471131191624e-01
-5.113522935964449623e-01 5.954151744096767285e-01 2.268613568122075930e-01
-1.553070642547623448e-01 8.009778844605890402e-01 -1.044852129638824123e-01
-6.407772237052486997e-01 5.206917297001867340e-01 1.557236659729640815e-01
-5.732678981066419155e-02 8.575470386489147945e-01 -1.463715969914119175e-01
-5.286401769524298189e-01 5.854339805694852572e-01 -1.041821177485607874e-01
-2.632361281909778028e-01 7.386649777469245226e-01 1.668053618573078073e-02
-1.525497488186183526e-01 8.025699526326455224e-01 -4.645779963599829324e-03
-1.062072759558960466e-01 8.293257973259879900e-01 1.298581225600479172e-01
-5.448217300408260133e-01 5.760917088246582107e-01 -1.306266843104012809e-01
-5.752454850828661037e-01 5.585265882684817829e-01 1.510901715149804148e-01
-6.700969396962306313e-01 5.037638946561389108e-01 1.273410575429601843e-01
-1.174617315537562628e-01 8.228279072454645071e-01 -2.277647730212137567e-01
-3.833547913861483636e-01 6.693144358014779804e-01 2.588893542184644847e-02
-4.925129293326582780e-01 6.062919065966503318e-01 3.595948670672794584e-02
-6.771902187580394195e-01 4.996685087661776881e-01 -9.728352861563226150e-03
-7.136297264592545986e-01 4.786302312663968661e-01 -1.474199922124433959e-01
-1.497839231496467804e-01 8.041669305544105750e-01 6.034130375781591310e-02
-3.754072158751070587e-01 6.739030878787932721e-01 -4.661333851963878061e-02
-2.999109765615409762e-01 7.174908638385490978e-01 8.663432271199558721e-02
-7.134549393696414388e-01 4.787313721103864106e-01 7.828643894140963067e-02
-6.910363675685524676e-01 4.916744542912317995e-01 1.150270779580631064e-01
-4.616529214061319830e-02 8.639909214826477779e-01 -7.147892957531135072e-02
-6.827251432624545924e-01 4.964729163394120959e-01 -1.912064493770593288e-01
-6.387174200443210825e-01 5.218808710795208583e-01 -2.800735102531681092e-02
-2.765638074323014672e-01 7.309704180041809440e-01 -1.999386028914763302e-01
-5.887423870308003959e-01 5.507338335315734579e-01 -6.360591878362208129e-03
-6.808830653781776376e-02 8.513339140514686321e-01 1.176246628703659647e-01
-4.458117174245876946e-01 6.332549427276801257e-01 4.952807100040225452e-02
-1.355990016092655237e-01 8.123563930677439870e-01 1.569956184640437236e-01
-4.763461054933867400e-01 6.156259954252967237e-01 1.505772663287935909e-01
-9.157262134224061767e-02 8.377751492572107495e-01 -6.928158944633978911e-03
-1.429217898470245066e-02 8.823929907057543875e-01 1.595651176208993591e-02
-4.504095945742769835e-02 8.646403177107233606e-01 -1.826549746519053052e-01
-6.542430305716973038e-01 5.129169773788753162e-01 1.087016837506221689e-01
-1.114168477129790780e-01 8.263180846547242275e-01 4.412053614796709183e-03
-4.913987434655364694e-01 6.069354111250759853e-01 1.192576456233244153e-01
-6.574857565956619965e-01 5.110450534734494177e-01 1.130049593166167383e-03
-7.233811440131008297e-01 4.730003849342889755e-01 8.458014691028378426e-03
-2.439417937875614784e-01 7.498048725182593355e-01 1.929533160605575726e-01
-5.215112203760747800e-01 5.895499874082210656e-01 -1.237470795430112638e-02
-4.950630533311147219e-01 6.048196363174747070e-01 -1.989239212851080796e-01
-7.534307761273737469e-01 4.556509660486275926e-01 -1.223792867505104909e-01
-4.448068553176358630e-01 6.338352751431934884e-01 -1.109555449698266388e-02
-3.991003587004534059e-01 6.602238705583600709e-01 -1.624588194091966878e-02
-4.161355536047878778e-01 6.503886599428265747e-01 -3.615131652468746987e-02
-2.243728407171312889e-01 7.611028612301993235e-01 2.968940901266646851e-02
-6.210779986092267446e-01 5.320650012409862128e-01 1.710997562687760487e-02
-5.149062977519116568e-01 5.933632263482824243e-01 1.493056411543611239e-01
-7.147507859759678617e-01 4.779831262548516202e-01 -2.005739245037217455e-01
-6.427296675058895570e-01 5.195644511671762000e-01 -1.173022782355497562e-01
-2.370435954474932883e-01 7.537873341649312664e-01 2.224029767604842611e-01
-6.825785054045021560e-01 4.965576913510409418e-01 -2.325488331369165440e-01
-1.760095148745000337e-01 7.890252624542180016e-01 1.729107358016065132e-01
-3.494290755355486944e-01 6.889017186041523910e-01 1.791340072151161589e-01
-6.746230742939276492e-01 5.011509258614170736e-01 -1.428869839651549511e-01
-1.798672688785827589e-01 7.867981999865634180e-01 3.443124528087846553e-02
-1.920591593540683928e-01 7.797592554881924709e-01 5.482961873535287939e-02
-1.579170871996593006e-01 7.994709186168085235e-01 3.778853213136857542e-02
-1.640274343698795712e-01 7.959430997931191687e-01 -1.981285418323742165e-01
-5.071401158696799832e-02 8.613648600220371598e-01 7.827956529181809286e-02
-4.536682989077030492e-01 6.287189886305668551e-01 2.404777293363753454e-01
-2.934157050141951717e-01 7.212409306656979435e-01 -1.309179961264231307e-01
-5.715255313872611431e-01 5.606741127908632105e-01 -1.959980377756480596e-01
-3.128658421416861124e-01 7.100113511330261584e-01 1.572921673464210690e-01
-6.301178297720262389e-01 5.268459373011338265e-01 -1.581540143412308863e-01
-1.515504510946692196e-01 8.031470118816865789e-01 1.952854471719685514e-01
-6.563286922477546970e-01 5.117131067504163688e-01 -7.725639571531339733e-02
-1.241088780254100965e-01 8.189904468735091925e-01 1.082575150603506953e-01
-2.223424955544530957e-01 7.622753094605254631e-01 -5.082721303589207013e-02
-1.793471627261572221e-01 7.870983493520600227e-01 -2.574919347617658089e-02
-4.541016661486164674e-01 6.284689187120942044e-01 -1.970516700630349782e-01
-7.335066844947144560e-01 4.671541822983716896e-01 -8.177892982989096171e-02
-3.213757476526437618e-01 7.050983282583205281e-01 -3.025699834162944024e-02
-7.049289953429702660e-01 4.836535598512142209e-01 1.574607354197370968e-01
-2.144950789374597544e-01 7.668056991746361462e-01 -7.378585730488668171e-02
-4.854477995025101578e-01 6.103712539708978646e-01 1.748396128036478481e-01
-6.366176837524331056e-01 5.230932519408073578e-01 1.176253175036603427e-01
-2.536254567954341899e-01 7.442139768671702793e-01 5.498214829295532818e-02
-5.425112018281312842e-01 5.774255241620618317e-01 -2.824367364460645541e-02
-6.943033150244111162e-01 4.897884557699757058e-01 8.960537591877132391e-02
-7.857815044778240776e-02 8.452775741280389443e-01 -1.905364322002090494e-01
-6.230494869816582959e-02 8.546728711697146874e-01 1.605234372877331617e-01
-1.885503248959174427e-01 7.817850182178096574e-01 -2.297993733003057537e-01
-6.228559826369015617e-01 5.310385362353180483e-01 1.941814081209104759e-01
-3.017462410024787101e-01 7.164313398515125275e-01 2.001418442667059761e-01
-3.437501317063585415e-01 6.921804494593106760e-01 -2.306877106808488120e-01
-2.066656647360632926e-01 7.713262693893305766e-01 -2.003516765002623934e-01
-3.104941057159620321e-01 7.113808439849762522e-01 -2.282485470257983595e-01
-1.411797504442910411e-01 8.091342879925540466e-01 -1.580761129791935504e-01
-6.768635567441181333e-01 4.998573704716210986e-01 7.572813202677272648e-02
-6.092664500778055547e-01 5.388846435857226336e-01 -2.008370870880830938e-01
-5.512263348768930982e-01 5.723940126610640444e-01 -6.939424984919539963e-02
-4.645293198956101932e-01 6.224485836198581090e-01 -1.291684886470559068e-01
-1.701672400383492934e-01 7.923985878204218292e-01 1.122078996755954128e-01
-4.013310216512275264e-01 6.589358795515667389e-01 -9.059945883905617947e-02
-8.190892464984807220e-02 8.433545888256475109e-01 -1.518430220662674301e-01
-6.975280386327789017e-01 4.879266786806135126e-01 -8.045362472531511489e-02
-1.341971044092412357e-01 8.131658471363081286e-01 -1.136841200172288291e-01
-4.703162782183814561e-01 6.191073352850815503e-01 -2.341117701273708884e-01
-6.621241608033536785e-01 5.083669486659314618e-01 -1.023308147919095024e-01
-6.240575620488300057e-01 5.303449522598684407e-01 -1.075682084640058878e-01
-3.120809368216631574e-01 7.104646846894198120e-01 2.426321275083482554e-01
-2.546669783668741305e-01 7.436126961862350448e-01 -6.601045035028077490e-02
-2.114248487865777182e-01 7.685784461359557174e-01 5.530193665728494468e-02
-3.455635261381850842e-02 8.706933844676809642e-01 2.422911270381630441e-02
-4.599275751524064537e-01 6.251050855286597319e-01 -1.746301524121211257e-01
-3.571161069954064682e-01 6.844636321845565252e-01 -1.924391238704731277e-01
-6.574595712638846567e-01 5.110601100392213603e-01 8.410972941202185527e-02
-4.568485074520495792e-01 6.268830695563345490e-01 1.940040024981196098e-01
-3.193620956389735532e-01 7.062606296725830735e-01 -1.682690806901336600e-01
-1.367387783811223681e-02 8.827497658512193368e-01 5.666586512623224270e-02
-5.712522219868361173e-01 5.608318794148210440e-01 -5.124257786120861580e-02
-5.863356277238240821e-01 5.521236200156507401e-01 -1.459601599658619520e-01
-4.964303151727864766e-02 8.619831611686274986e-01 5.740658269888108262e-02
-5.128497672574561239e-01 5.945507311443805065e-01 7.108023563631160613e-02
-7.310567193903059202e-01 4.685688448476373891e-01 4.547327237469576955e-02
-1.040646611832229118e-01 8.305627269358157871e-01 -9.888187928019903650e-02
-4.767824185841250673e-01 6.153742889235880309e-01 7.468431923880228251e-02
-4.232445438656629033e-01 6.462841091867432830e-01 -1.661218834843995462e-01
-3.156274126942438252e-01 7.084169917444391729e-01 -1.912323073921893268e-01
-4.520298119779940504e-02 8.645467051496198430e-01 -1.091540576197653212e-01
-3.951447370188532759e-01 6.625075588059829990e-01 1.110976416082401774e-01
-5.381817845354108787e-01 5.799252413968472020e-01 1.446492345310723682e-01
-2.567709697751758280e-01 7.423976967917711445e-01 -1.445965588135618707e-01
-7.578950478787467304e-01 4.530736747684522281e-01 -5.482276734845253907e-02
-3.296461175840918051e-02 8.716124896130623689e-01 1.418202367491881999e-01
-5.348411908339287812e-01 5.818537910822412229e-01 -5.430920752897129555e-02
-1.309239379370855105e-01 8.150557734573309343e-01 6.755765387897760821e-02
-5.908283760235051307e-01 5.495296355864673910e-01 -8.236515394505405929e-02
-2.665937423581151156e-01 7.367266085621140270e-01 1.936462454027129965e-01
-4.893062081398872887e-01 6.081435368699488198e-01 -1.604262465062013809e-01
-4.229604330158797665e-01 6.464484221436455069e-01 8.966691144844787797e-02
-3.289102495548990035e-01 7.007482900168255924e-01 -1.039042259150747549e-01
-4.554138785873036999e-01 6.277111806737900590e-01 7.303267943695249120e-02
-2.100556832512749661e-01 7.693689158389813709e-01 -1.191264139104821485e-01
-5.895210733345261911e-01 5.502844277749465718e-01 -2.330290066583817765e-01
-7.571052328090155381e-01 4.535296268580235046e-01 1.327205066399481104e-01
-4.592225350943041073e-01 6.255122674377957548e-01 2.938304063087267617e-02
-3.678563481404910629e-01 6.782626183030573408e-01 1.871391904560673891e-01
-3.106937688707635536e-01 7.112653012085090598e-01 -6.990126333573229434e-02
-3.546140985440905946e-01 6.859080805487187682e-01 5.122324391633172047e-02
-4.062964151894877807e-01 6.560692403552528251e-01 2.401903453201200966e-01
-5.056049405879867731e-01 5.987335105791482537e-01 -2.375387119475046160e-02
-7.372024167584254606e-01 4.650207323918205682e-01 1.425596450552481798e-01
-7.565720339907013869e-01 4.538373045064061362e-01 6.694949954845108575e-02
-7.177749246858447507e-02 8.492037373113898724e-01 1.309249109895367115e-02
-3.485934361352074351e-01 6.893841833421481269e-01 -2.686010617682623586e-02
-2.515005171217106761e-01 7.454407596609340381e-01 -2.251786005865123036e-03
-6.721191019427283919e-01 5.025963561755211195e-01 1.477535056132648628e-01
-6.497784315036767566e-01 5.154949232923451419e-01 -1.427115422422473856e-01
-1.246044354292944745e-01 8.187040448071956078e-01 2.162858194168855788e-02
-7.065283246875177225e-02 8.498531335394654551e-01 -8.232849448056592245e-02
-4.149529585583979774e-01 6.510714424689181268e-01 1.775036429953354422e-01
-3.293779850437700274e-01 7.004782537828726507e-01 1.171219045002427628e-01
-3.224437818725081062e-01 7.044816636949662314e-01 3.556179698036103509e-02
-7.279943448389571969e-01 4.703370093758959536e-01 8.982435075575856409e-02
-7.130945637410570637e-01 4.789392181813683647e-01 5.404667731521325263e-02
-1.739703321623470300e-01 7.902026204342524895e-01 -4.413712460723966113e-03
-2.455188053938460735e-01 7.488942776057054829e-01 -8.588675375244639310e-02
-1.897525589411402647e-01 7.810907796090653665e-01 9.483262277480403180e-02
-5.446999682480617722e-01 5.761617545871624557e-01 2.218802520748809626e-01
-2.141232472262228625e-01 7.670204188952096658e-01 2.225754726335668343e-01
-6.440965418246618057e-01 5.187752907307394690e-01 1.843135293168685074e-02
-3.940891408315830291e-01 6.631173497197457856e-01 6.363214532892128017e-02
-2.785244341491227016e-01 7.298385570381096255e-01 1.291910512330226024e-01
-5.444237129978120038e-01 5.763214851110036729e-01 1.224316351513738410e-01
-4.958823268990953381e-01 6.043466637622481041e-01 1.068442252538872629e-02
-3.079083042029590600e-01 7.128737352129264071e-01 1.099543245595161756e-01
-5.648100359425915762e-02 8.580353950865604595e-01 -2.006204034676263570e-01
-7.239690047115001637e-01 4.726609575711264721e-01 1.227992117461969290e-01
-5.980309788454838404e-01 5.453714049002407194e-01 -2.272740618908241847e-02
-1.216167492797629382e-02 8.836230466659904526e-01 1.321660322395648846e-01
-1.882148253325215126e-01 7.819787896729613053e-01 1.495852330472963176e-02
-7.265250204096065367e-01 4.711850868088314770e-01 -1.838781569625498880e-01
-2.858160670991439778e-01 7.256286103216227357e-01 -4.931042769269509962e-02
-5.753983419571158109e-01 5.584382127737337331e-01 6.327438823351463903e-02
-9.771995529359626953e-02 8.342257275348052836e-01 8.359060520953798257e-02
-4.571846616487399428e-01 6.266889707845357815e-01 -9.918071937910685754e-02
-6.792297287868396261e-01 4.984911507861433111e-01 5.514842514974085952e-02
-1.095125796657310871e-02 8.843218677077957501e-01 -6.407398158914036357e-03
-4.266031399827418524e-01 6.443450853686383262e-01 -1.215904536307209904e-01
-2.080767268022096217e-01 7.705112509377636254e-01 1.242178020952291462e-01
-7.319077426730664637e-01 4.680775425601668149e-01 -3.683377173413193706e-02
-5.086843356049908227e-01 5.969555265514732145e-01 -2.368389724319710232e-01
-4.022449499365055720e-02 8.674208726288197280e-01 -1.579517326532516586e-01
-2.861352008301791816e-01 7.254443310492404429e-01 -1.591284359999916576e-01
-6.952948173550793642e-02 8.505015478175996790e-01 -2.354560595974852510e-01
