4.265424684742923911e-01 8.915836841865286688e-01 -7.008411001736955526e-02
-1.237546807708239383e-01 8.915836841865286688e-01 -3.140976332080034350e-01
3.445347888486475219e-01 8.915836841865286688e-01 -9.948894980245562292e-02
3.185215320966534036e-01 8.915836841865286688e-01 -1.023124096630132068e-01
-5.525540178026719929e-01 8.915836841865286688e-01 -7.977383442830135452e-02
-1.423416232126691050e-01 8.915836841865286688e-01 1.700333860107796913e-01
-3.801147631171787611e-02 8.915836841865286688e-01 8.323915296164463573e-02
-1.100195566445456019e-01 8.915836841865286688e-01 1.342386995289893137e-01
-1.546106588322218034e-01 8.915836841865286688e-01 2.453867137541824173e-01
1.064447430165721131e-01 8.915836841865286688e-01 3.329173573814649401e-01
-5.451726262678071588e-01 8.915836841865286688e-01 1.905474520783516368e-01
7.463853047577438948e-01 8.915836841865286688e-01 1.355139239079919122e-01
-7.455362341968372331e-01 8.915836841865286688e-01 1.343708728293114829e-01
5.366061801154398125e-01 8.915836841865286688e-01 1.783169814215347093e-01
-7.259670789487976394e-02 8.915836841865286688e-01 -1.973785749248272992e-01
1.429556132941852964e-01 8.915836841865286688e-01 2.225423435943906236e-01
2.279947008261825059e-01 8.915836841865286688e-01 2.499460477135721781e-03
-4.366284462424922519e-01 8.915836841865286688e-01 1.502296216811628560e-01
6.390973621746380839e-01 8.915836841865286688e-01 -3.241648617494910511e-01
6.390973621746380839e-01 8.915836841865286688e-01 3.060669021431043357e-01
-6.715971665336049057e-01 8.915836841865286688e-01 3.315328535940371135e-01
-6.397679962312661228e-01 8.915836841865286688e-01 -3.243563313831710482e-01
-6.321347041583588733e-02 8.915836841865286688e-01 1.214126128458297704e-01
5.835809141699751512e-01 8.915836841865286688e-01 7.365235014658977342e-02
3.361482285915901036e-01 8.915836841865286688e-01 2.289362269974747066e-01
-4.977220366151333675e-01 8.915836841865286688e-01 1.638226393260629743e-01
-5.845407061546750160e-01 8.915836841865286688e-01 3.769358596726817001e-02
3.866469928989009208e-01 8.915836841865286688e-01 1.827976747394207541e-02
-1.353881946381077228e-01 8.915836841865286688e-01 2.102895124675911998e-01
3.113857308945751079e-01 8.915836841865286688e-01 -1.873254316052435919e-01
3.620921116610852919e-01 8.915836841865286688e-01 3.364212617695754304e-01
4.164655186470090503e-02 8.915836841865286688e-01 2.797606670087861569e-01
1.894128415908274410e-01 8.915836841865286688e-01 -3.546811077186013961e-01
2.597338525762513117e-01 8.915836841865286688e-01 -6.025072210974159043e-02
7.141170561357484958e-01 8.915836841865286688e-01 2.656099927943221806e-01
7.141170561357484958e-01 8.915836841865286688e-01 -2.837079524007088960e-01
5.559550076360508797e-01 8.915836841865286688e-01 1.920153426861396784e-01
-3.144284633712626786e-01 8.915836841865286688e-01 -9.193268238049341623e-02
-7.532065097404123666e-01 8.915836841865286688e-01 2.932353370727149855e-01
-7.533814144611264974e-01 8.915836841865286688e-01 -3.111340563856405672e-01
7.531712965183935404e-01 8.915836841865286688e-01 -3.111340563856405672e-01
7.531712965183935404e-01 8.915836841865286688e-01 2.930360967792538518e-01
-1.713585210978458284e-01 8.915836841865286688e-01 -2.232273791422692000e-01
3.059368116213901923e-01 8.915836841865286688e-01 1.639772307636016280e-01
-7.135951462101178810e-01 8.915836841865286688e-01 -2.835618524633763959e-01
-3.971696990469720245e-01 8.915836841865286688e-01 1.765633064188638079e-01
9.836699079757099673e-02 8.915836841865286688e-01 -3.389934794801192225e-02
4.862249704646328663e-01 8.915836841865286688e-01 1.165075532564747718e-01
-6.139313886338145787e-01 8.915836841865286688e-01 1.406121543144298602e-01
-3.508502810227752677e-01 8.915836841865286688e-01 -6.898366812109499834e-03
-2.043507241754451975e-01 8.915836841865286688e-01 2.661062118295799694e-02
-5.442304589987568830e-01 8.915836841865286688e-01 2.286252489248532388e-02
-6.063304435223129119e-01 8.915836841865286688e-01 9.737823606207510196e-02
-5.928368730224413685e-01 8.915836841865286688e-01 -3.408453185318623124e-02
2.659864368392332312e-01 8.915836841865286688e-01 -3.259881122699798683e-01
-6.998767455816986560e-01 8.915836841865286688e-01 1.167161068082265551e-01
-2.540865077265442862e-01 8.915836841865286688e-01 -2.768660234230816419e-01
-3.120283242586718297e-01 8.915836841865286688e-01 1.612909180022984723e-01
1.361239058337840591e-01 8.915836841865286688e-01 2.962140659608107351e-01
-7.437101147314569838e-01 8.915836841865286688e-01 -2.207972674848082129e-01
-7.435841118251724779e-01 8.915836841865286688e-01 2.025368592802506695e-01
7.435083297040365746e-01 8.915836841865286688e-01 -2.208434877728571721e-01
7.433258561588602653e-01 8.915836841865286688e-01 2.029149400831464500e-01
-7.064466870501771023e-01 8.915836841865286688e-01 -1.539544632312307357e-02
9.303826009997804083e-03 8.915836841865286688e-01 -2.101693260103549010e-01
3.141442430328431068e-01 8.915836841865286688e-01 2.462499345798902506e-01
4.079574578847861011e-01 8.915836841865286688e-01 -2.995766055999993793e-01
2.587394820436247911e-01 8.915836841865286688e-01 -1.468848997509167309e-01
-5.767630585782636959e-02 8.915836841865286688e-01 2.962973374467030574e-01
2.744824495064177583e-01 8.915836841865286688e-01 2.341541313312658634e-01
6.643429815412750239e-01 8.915836841865286688e-01 4.267058543103497553e-02
-4.694347157408754190e-01 8.915836841865286688e-01 4.387317792881777201e-02
-4.015802044375648694e-01 8.915836841865286688e-01 2.464816886311756508e-03
5.929718934751831982e-01 8.915836841865286688e-01 -3.105159576513291664e-02
-4.089036115686454087e-01 8.915836841865286688e-01 -2.996677630801408143e-01
1.170495743470009176e-01 8.915836841865286688e-01 -3.559649965995121401e-01
7.501584718781969530e-01 8.915836841865286688e-01 -3.524644945782074990e-01
7.501584718781969530e-01 8.915836841865286688e-01 3.343665349718207835e-01
-1.993370051004305366e-01 8.915836841865286688e-01 -2.763515596117818718e-01
-3.429977626029596660e-01 8.915836841865286688e-01 -3.213040911885370887e-01
-8.079149576527872023e-02 8.915836841865286688e-01 1.661473641133936197e-01
6.743061639758227699e-01 8.915836841865286688e-01 -1.722380540921505665e-01
-6.745052818936706496e-01 8.915836841865286688e-01 -1.721795362664516604e-01
6.732934264291681181e-01 8.915836841865286688e-01 1.560224395042915657e-01
6.246861862905319501e-02 8.915836841865286688e-01 -4.729285889337964122e-03
-4.605751976641878076e-01 8.915836841865286688e-01 1.485811749637287738e-01
-5.455266310005090213e-01 8.915836841865286688e-01 1.618053673967897177e-01
1.002409596503605616e-01 8.915836841865286688e-01 3.045391817800439105e-01
-6.673453325373560618e-01 8.915836841865286688e-01 9.488755939210828660e-02
7.860249828999310573e-01 8.915836841865286688e-01 -4.623793025176554244e-02
-7.862351008426640142e-01 8.915836841865286688e-01 -4.623793025176554244e-02
-1.035068643226182417e-01 8.915836841865286688e-01 2.352235413521315543e-01
-7.504701706536164307e-01 8.915836841865286688e-01 -3.524881669777634730e-01
1.189988519322774784e-03 8.915836841865286688e-01 2.786105372771325306e-01
7.053543757617511956e-01 8.915836841865286688e-01 1.175989489103020091e-01
5.827818481420894425e-01 8.915836841865286688e-01 2.499950898414290412e-01
3.434923526764841473e-01 8.915836841865286688e-01 -3.218317607964222837e-01
4.053299801189688689e-01 8.915836841865286688e-01 1.529172319552309645e-01
-6.961204605439984539e-01 8.915836841865286688e-01 -1.362360971545648614e-01
6.960082038973591789e-01 8.915836841865286688e-01 -1.363215455785405650e-01
-2.001754578491364289e-01 8.915836841865286688e-01 1.215281203155266776e-01
-2.532733420599462826e-01 8.915836841865286688e-01 -2.253672660278295270e-01
2.811066558420877159e-01 8.915836841865286688e-01 1.756772205348759996e-01
-3.245605243005718621e-01 8.915836841865286688e-01 2.809242908731952038e-01
5.300422216224888183e-01 8.915836841865286688e-01 2.789687442046259042e-02
-5.049328340550254257e-01 8.915836841865286688e-01 2.055702422893674886e-01
-2.353737786305422075e-01 8.915836841865286688e-01 2.407273309984650778e-01
-6.754580022665426231e-01 8.915836841865286688e-01 2.099293517576601431e-01
-4.257856510709729925e-01 8.915836841865286688e-01 7.687986989895898016e-02
6.180607012157726121e-01 8.915836841865286688e-01 4.357593217117791684e-02
5.537042699099389287e-01 8.915836841865286688e-01 2.715544177756302191e-01
4.779438835785567719e-01 8.915836841865286688e-01 -2.831582827430537685e-01
2.396583025728044880e-01 8.915836841865286688e-01 9.614241282070126737e-02
-1.269939502221201222e-01 8.915836841865286688e-01 4.890338983275571705e-02
-2.350698723073756102e-01 8.915836841865286688e-01 -1.883281494699912129e-01
-7.153729405334081637e-01 8.915836841865286688e-01 2.656354096277065979e-01
-1.505054581952199322e-01 8.915836841865286688e-01 3.340628304839732277e-01
5.546567884474917776e-01 8.915836841865286688e-01 -2.903345663433982704e-01
-3.349054638241826809e-01 8.915836841865286688e-01 1.108465771470727446e-01
-2.541500613752767021e-02 8.915836841865286688e-01 -2.233079691017806345e-01
-5.189359522344983988e-01 8.915836841865286688e-01 3.353895372861270263e-01
-4.693189631854340349e-01 8.915836841865286688e-01 1.283000268542725808e-01
3.439562279067596151e-01 8.915836841865286688e-01 -2.439296854784172852e-01
-1.635126488267484579e-01 8.915836841865286688e-01 -1.335661042204829840e-01
3.671863197779519083e-01 8.915836841865286688e-01 1.868047765078746925e-01
-5.555061476790864594e-01 8.915836841865286688e-01 -2.905686088125769007e-01
4.695559969751174068e-01 8.915836841865286688e-01 -3.232103825259822760e-01
-4.702622405487388302e-01 8.915836841865286688e-01 -3.234283358368756356e-01
5.336076425324660644e-01 8.915836841865286688e-01 -2.546951777227630109e-01
-1.569747559235642187e-01 8.915836841865286688e-01 -2.899839928111193066e-01
-4.788717855828558689e-01 8.915836841865286688e-01 -2.833765676405425871e-01
-2.348120276873645329e-01 8.915836841865286688e-01 5.905417819630563031e-02
-2.701353710320767987e-01 8.915836841865286688e-01 1.157007598192334868e-01
7.083604100851446095e-01 8.915836841865286688e-01 -1.761047361458207422e-02
-2.622516113882430444e-01 8.915836841865286688e-01 2.862013686925860001e-02
-5.345590151010022328e-01 8.915836841865286688e-01 -2.549985506240150523e-01
-7.113135853474342740e-01 8.915836841865286688e-01 -1.614192917403997063e-01
7.111105028072489675e-01 8.915836841865286688e-01 -1.614285040810307936e-01
-1.309744742992195177e-01 8.915836841865286688e-01 1.159102216299207067e-01
-2.364684324830902407e-01 8.915836841865286688e-01 -1.610443249681397793e-01
1.527597062469425448e-01 8.915836841865286688e-01 2.741238967208545207e-01
3.182007869411596079e-01 8.915836841865286688e-01 5.357377261335809909e-02
5.509516830799642273e-01 8.915836841865286688e-01 -7.727261907132151886e-02
2.571807367086737517e-01 8.915836841865286688e-01 -1.239235227733440914e-01
-1.084789620714952663e-01 8.915836841865286688e-01 8.493791434074147995e-02
6.316568473081172197e-01 8.915836841865286688e-01 9.851686808406446075e-03
4.476517036471434619e-01 8.915836841865286688e-01 1.638208228081920459e-01
1.250535557569108225e-01 8.915836841865286688e-01 -2.555980841676114453e-03
9.498678262638501901e-02 8.915836841865286688e-01 2.205603495955152649e-01
1.249449639984264067e-02 8.915836841865286688e-01 -3.557281572694845906e-01
2.169827532405401993e-01 8.915836841865286688e-01 -6.711224353011951971e-02
1.978297492297760585e-01 8.915836841865286688e-01 -2.924851072504395799e-01
1.111616920886274174e-01 8.915836841865286688e-01 -7.396631146050329508e-02
3.290403671643835626e-01 8.915836841865286688e-01 -2.880724970058058387e-01
-1.114814686336736138e-02 8.915836841865286688e-01 -3.550800928938213086e-01
2.949519676357266751e-01 8.915836841865286688e-01 2.117685616851577579e-01
-6.772212211964400153e-01 8.915836841865286688e-01 1.579650035319211387e-01
-2.871432159622369987e-02 8.915836841865286688e-01 -2.613368572303341741e-01
5.377551565024135671e-01 8.915836841865286688e-01 2.400575837428187143e-01
-4.693268491796831476e-01 8.915836841865286688e-01 2.239668396085955637e-01
2.984128811008920912e-01 8.915836841865286688e-01 1.400787179831449458e-01
4.962403417459482768e-01 8.915836841865286688e-01 -2.677115662781141547e-01
3.835716858106680283e-01 8.915836841865286688e-01 -7.189310231425251330e-02
4.686453160158296494e-01 8.915836841865286688e-01 2.629094794766471677e-01
-4.172200052187364783e-01 8.915836841865286688e-01 2.986315629108347580e-01
3.675790624750915336e-01 8.915836841865286688e-01 -2.768054584105757998e-01
7.414502250162260943e-02 8.915836841865286688e-01 -1.704278652001621486e-01
6.789366698641158271e-01 8.915836841865286688e-01 2.092252348305512766e-01
6.789366698641158271e-01 8.915836841865286688e-01 -2.273231944369379920e-01
-6.719881792137245569e-01 8.915836841865286688e-01 -2.272455310895519220e-01
-5.747062369864095466e-01 8.915836841865286688e-01 1.537129388667362317e-01
8.700716562283905553e-02 8.915836841865286688e-01 2.628923234745328963e-01
3.427752462049173943e-01 8.915836841865286688e-01 3.032462823938210650e-01
4.772332358371977334e-01 8.915836841865286688e-01 2.194930011782650070e-01
-4.971504389917506539e-01 8.915836841865286688e-01 -2.676484927409294445e-01
2.715933643335711190e-01 8.915836841865286688e-01 -2.854353599782940010e-01
-3.640205978424740918e-01 8.915836841865286688e-01 -2.793044679958552323e-01
-3.362672323046069778e-01 8.915836841865286688e-01 -2.896465385745746746e-01
-4.388986034096528654e-01 8.915836841865286688e-01 2.582168803941473079e-01
-3.317027265656239399e-01 8.915836841865286688e-01 1.950502106265319113e-01
3.908802003785686319e-01 8.915836841865286688e-01 -1.442801284584859789e-01
-6.295590792958467574e-01 8.915836841865286688e-01 3.078299192376828253e-01
4.665778735929786980e-01 8.915836841865286688e-01 1.745239911893950169e-01
-1.207389871857358632e-01 8.915836841865286688e-01 -2.708514750852327180e-01
2.061101541689855030e-02 8.915836841865286688e-01 -1.723132233316662376e-01
7.868386819884436445e-01 8.915836841865286688e-01 2.677039765616205380e-01
7.868386819884436445e-01 8.915836841865286688e-01 -2.858019361680072534e-01
-7.868942373272549418e-01 8.915836841865286688e-01 2.676150969372220190e-01
-7.870451236450092258e-01 8.915836841865286688e-01 -2.857980868801379137e-01
6.339514553824926457e-01 8.915836841865286688e-01 -1.752575681314909595e-01
-6.341548839260819914e-01 8.915836841865286688e-01 -1.751788811907014631e-01
7.835493862116547081e-01 8.915836841865286688e-01 -3.261460772407073772e-01
7.835493862116547081e-01 8.915836841865286688e-01 3.080481176343206617e-01
-7.837595041543876651e-01 8.915836841865286688e-01 -3.261460772407073772e-01
-7.837595041543876651e-01 8.915836841865286688e-01 3.080481176343206617e-01
6.928305951360147485e-01 8.915836841865286688e-01 5.570875027073837402e-03
6.355678102842070576e-01 8.915836841865286688e-01 1.626020834848899699e-01
-7.100845235892465634e-01 8.915836841865286688e-01 -5.462012221584769400e-02
-5.062222589903999648e-01 8.915836841865286688e-01 1.434948528411112978e-01
-9.507066699389746245e-02 8.915836841865286688e-01 -3.910517099628060822e-02
-4.875368641633125444e-01 8.915836841865286688e-01 6.070901155990492820e-02
-1.623217483606586298e-01 8.915836841865286688e-01 -2.489120699250446656e-02
-1.948597354696771089e-01 8.915836841865286688e-01 1.507042086001533499e-01
2.424384399238214971e-01 8.915836841865286688e-01 -1.820258128008780396e-01
2.388075378696400963e-01 8.915836841865286688e-01 -1.597502578204285373e-01
-4.145794369908017973e-01 8.915836841865286688e-01 3.401151076096649573e-01
-4.409037508029781116e-01 8.915836841865286688e-01 1.911327168361917073e-01
-2.392709014704727799e-01 8.915836841865286688e-01 -3.567406929808203397e-01
-1.075132665709739865e-01 8.915836841865286688e-01 -3.547197735989967016e-01
7.854461768722987847e-01 8.915836841865286688e-01 -9.821803604919433772e-02
-7.856562948150317416e-01 8.915836841865286688e-01 -9.821803604919433772e-02
2.781391720646215204e-01 8.915836841865286688e-01 -3.073105025194822204e-01
-1.630506189479609125e-01 8.915836841865286688e-01 -2.683645323686672524e-01
3.002548446388130787e-01 8.915836841865286688e-01 -1.181093104064023097e-01
-4.585955103546723866e-01 8.915836841865286688e-01 5.455122471632456796e-03
2.874061523999265622e-01 8.915836841865286688e-01 -3.556142788991481507e-01
3.218929892650802538e-01 8.915836841865286688e-01 3.093778087158338130e-01
2.706297448534737415e-01 8.915836841865286688e-01 1.358588028009136417e-01
-6.382808015168973670e-01 8.915836841865286688e-01 6.228711866867061436e-02
1.376252146036736346e-01 8.915836841865286688e-01 1.975772464875341083e-01
-2.711873943818922106e-01 8.915836841865286688e-01 3.086114255928162353e-01
3.556403880223016900e-01 8.915836841865286688e-01 1.465240982261888092e-01
2.026464481998384581e-01 8.915836841865286688e-01 1.641104276573272513e-01
-5.207958791158096012e-01 8.915836841865286688e-01 -7.409426063593513301e-02
3.184539316815999110e-01 8.915836841865286688e-01 7.830414966103646512e-02
5.976375907930232545e-01 8.915836841865286688e-01 5.606700796194753408e-03
-4.516218838314034478e-01 8.915836841865286688e-01 -6.297040978272076817e-02
7.337367466544454375e-01 8.915836841865286688e-01 -1.185583150035967107e-02
-5.355182951217413168e-01 8.915836841865286688e-01 4.814822298675063700e-02
-5.773612796900775557e-01 8.915836841865286688e-01 -2.479724180841914316e-01
5.351346420551015282e-01 8.915836841865286688e-01 4.507476815352384411e-03
-7.589491138195377795e-01 8.915836841865286688e-01 -2.587011618836722593e-01
-7.580062545436795363e-01 8.915836841865286688e-01 2.412316453765812607e-01
7.587665175642300808e-01 8.915836841865286688e-01 -2.587203650725934390e-01
7.587665175642300808e-01 8.915836841865286688e-01 2.406224054662067235e-01
-2.542188295518186397e-02 8.915836841865286688e-01 -1.427977276378293234e-02
7.649623096616658957e-02 8.915836841865286688e-01 2.405213292218176535e-01
6.935815522739380290e-01 8.915836841865286688e-01 -2.665814614934661209e-01
6.935815522739380290e-01 8.915836841865286688e-01 2.484835018870794054e-01
-7.256239545496455667e-01 8.915836841865286688e-01 -2.393244955058490275e-01
3.516461059530267413e-02 8.915836841865286688e-01 3.388561309738411520e-01
-6.938425903842907472e-01 8.915836841865286688e-01 -2.664852437135413754e-01
-9.864691492705776610e-02 8.915836841865286688e-01 3.022170231846261212e-01
-7.270751793268084295e-01 8.915836841865286688e-01 2.201396238730783939e-01
6.362521040996294008e-01 8.915836841865286688e-01 -7.942571175346725687e-02
5.770739020705966116e-01 8.915836841865286688e-01 -2.473965675023014066e-01
7.254443569905058009e-01 8.915836841865286688e-01 -2.394672651604182190e-01
7.254266243160515382e-01 8.915836841865286688e-01 2.213850054584872995e-01
3.531538201427572021e-01 8.915836841865286688e-01 -7.406124614447159860e-02
5.495834270357152773e-01 8.915836841865286688e-01 -1.778773473215695677e-01
-6.708040978980549518e-01 8.915836841865286688e-01 -1.102653988212608516e-01
6.714611365697501499e-01 8.915836841865286688e-01 -1.105521058918876726e-01
1.167244320649148126e-01 8.915836841865286688e-01 -1.675512938170929111e-01
-2.901280532202692997e-01 8.915836841865286688e-01 1.777866591208856761e-01
-8.883437372451988279e-02 8.915836841865286688e-01 1.174969211565519978e-01
2.713944556267053887e-01 8.915836841865286688e-01 3.087383223412276667e-01
-6.351884249274011296e-01 8.915836841865286688e-01 -9.691841843021084535e-02
-4.746146894515047565e-01 8.915836841865286688e-01 -1.387927451402247436e-01
-3.535359017772704560e-01 8.915836841865286688e-01 -7.508211477111993715e-02
-1.667206338036010260e-01 8.915836841865286688e-01 -8.732827091558413579e-02
-6.151414490384001788e-01 8.915836841865286688e-01 2.584282308067479272e-01
1.195668788622660517e-01 8.915836841865286688e-01 -2.636387457930018385e-01
3.135464644852254956e-01 8.915836841865286688e-01 -3.283194255387947291e-01
-2.029524235022835688e-01 8.915836841865286688e-01 2.995129344984432396e-01
-2.484003454526938770e-01 8.915836841865286688e-01 9.786971948062685167e-02
-5.401597722013024017e-01 8.915836841865286688e-01 2.757843526397685818e-01
-4.405751095932938788e-02 8.915836841865286688e-01 2.220577802439185344e-01
6.712959199443474523e-01 8.915836841865286688e-01 -1.998454350271531565e-01
6.712959199443474523e-01 8.915836841865286688e-01 1.817474754207664411e-01
4.629292965315770503e-01 8.915836841865286688e-01 4.272343745099363432e-02
-6.883263013649882911e-01 8.915836841865286688e-01 1.932737928035672265e-02
1.964630934512705263e-01 8.915836841865286688e-01 1.016935616829551803e-01
-6.181007440686386856e-01 8.915836841865286688e-01 -2.772402981885335738e-01
5.845964485774787223e-01 8.915836841865286688e-01 -2.057845113725079167e-01
-3.685068923953481179e-01 8.915836841865286688e-01 3.382125790592381276e-01
4.743606290764657563e-01 8.915836841865286688e-01 -1.370140713916159214e-01
-6.708806367343780330e-01 8.915836841865286688e-01 -1.996005943684084905e-01
-5.101813352133193619e-02 8.915836841865286688e-01 -6.121439925707294893e-02
-1.903471446581002369e-01 8.915836841865286688e-01 -2.383654317372374543e-01
-6.684198605252389402e-01 8.915836841865286688e-01 -1.006507646622839883e-02
-2.524884621716240174e-01 8.915836841865286688e-01 -3.227065006521210311e-01
1.261685185357672850e-02 8.915836841865286688e-01 -1.479465466252915390e-02
-8.850946211136975772e-02 8.915836841865286688e-01 3.481382846952057325e-02
3.249416973416318632e-01 8.915836841865286688e-01 -6.136048477759699360e-02
-4.046379230194285803e-01 8.915836841865286688e-01 2.600651584941909844e-01
-5.646035142623965219e-01 8.915836841865286688e-01 1.043297327842975519e-01
6.168947274115782475e-01 8.915836841865286688e-01 2.614274892301467479e-01
6.175916359344374440e-01 8.915836841865286688e-01 -2.772515000487375536e-01
-1.309217087801118340e-01 8.915836841865286688e-01 -2.121009332635249711e-01
6.240597759612346446e-02 8.915836841865286688e-01 -3.554649495967117656e-01
-5.499411010134391820e-01 8.915836841865286688e-01 -1.777011162544733791e-01
-3.348993266206291841e-02 8.915836841865286688e-01 2.671396594265300628e-01
-6.532876179040959519e-01 8.915836841865286688e-01 -2.904442350056529176e-01
-9.547929701400340030e-02 8.915836841865286688e-01 -2.032536694740618710e-01
-5.856774282544241483e-01 8.915836841865286688e-01 -2.063518704541918158e-01
7.109951971728710740e-01 8.915836841865286688e-01 -1.996475066632654172e-01
-7.112053151156040309e-01 8.915836841865286688e-01 -1.996475066632654172e-01
7.109951971728710740e-01 8.915836841865286688e-01 1.815495470568787018e-01
-7.112053151156040309e-01 8.915836841865286688e-01 1.815495470568787018e-01
-1.589801772362509635e-01 8.915836841865286688e-01 -1.891965603467588020e-01
1.533067087950253371e-01 8.915836841865286688e-01 -2.385655658728255968e-01
5.621078564178342285e-01 8.915836841865286688e-01 -2.443457651338593745e-03
6.517318350560324935e-01 8.915836841865286688e-01 7.112315176431266428e-02
6.527408818997113560e-01 8.915836841865286688e-01 2.722940577188814881e-01
6.527408818997113560e-01 8.915836841865286688e-01 -2.903920173252682035e-01
-6.957110808498505605e-01 8.915836841865286688e-01 2.466787625487037450e-01
6.180710957347007595e-01 8.915836841865286688e-01 -3.559502914548428043e-01
6.180710957347007595e-01 8.915836841865286688e-01 3.378523318484560889e-01
-2.372482376548207816e-01 8.915836841865286688e-01 3.370537559920593895e-01
-4.983401428627350915e-01 8.915836841865286688e-01 2.473174848324595221e-01
-7.055274569234492033e-01 8.915836841865286688e-01 -9.468333735812922702e-02
7.053111830034870522e-01 8.915836841865286688e-01 -9.469453921833323462e-02
-2.981577686333505284e-01 8.915836841865286688e-01 4.613475709492121518e-02
6.417675857776558024e-01 8.915836841865286688e-01 -1.106108688033310555e-01
-3.187778414938182148e-01 8.915836841865286688e-01 -2.586287318377714639e-01
1.003956231719417280e-01 8.915836841865286688e-01 -2.797149577842575896e-01
-1.541038503462352216e-01 8.915836841865286688e-01 1.468499180982743568e-01
-5.713222516113967142e-01 8.915836841865286688e-01 -1.678102341145499554e-01
5.708075641723061588e-01 8.915836841865286688e-01 -1.676989075193179024e-01
2.285733194353044284e-01 8.915836841865286688e-01 1.354260678769967918e-01
-7.111238168971570905e-01 8.915836841865286688e-01 -3.554270766407839344e-01
-6.185454737772270173e-01 8.915836841865286688e-01 -3.559251197072028639e-01
7.108294471255539593e-01 8.915836841865286688e-01 3.372661299980634908e-01
7.108294471255539593e-01 8.915836841865286688e-01 -3.553640896044502062e-01
-6.124417142283840043e-01 8.915836841865286688e-01 3.371104140494618484e-01
-2.176482260797253931e-01 8.915836841865286688e-01 1.561734267397053844e-01
-2.110870543876818689e-02 8.915836841865286688e-01 1.230721605058083534e-01
-1.215012903519481213e-01 8.915836841865286688e-01 -8.948503988389720776e-02
-2.294383064873122824e-01 8.915836841865286688e-01 2.216612170925265912e-01
1.302721809311269408e-01 8.915836841865286688e-01 3.371394927522051166e-01
1.116429972403786275e-01 8.915836841865286688e-01 1.867134748596482596e-01
-3.380560122359738129e-01 8.915836841865286688e-01 -2.113389328502911502e-01
-4.027125294107218312e-01 8.915836841865286688e-01 1.340197658751179910e-01
2.253551273580342851e-01 8.915836841865286688e-01 -2.100160465023896694e-01
-8.150306618238173373e-02 8.915836841865286688e-01 3.376804979079521818e-01
-3.883721444132147704e-01 8.915836841865286688e-01 1.513223004309465214e-01
-9.592843826599251056e-02 8.915836841865286688e-01 -2.418240385130429326e-01
3.734871383253054317e-02 8.915836841865286688e-01 -2.322855752568864507e-01
7.549769152820877682e-01 8.915836841865286688e-01 -6.977941076973552537e-02
-7.554298266967583997e-01 8.915836841865286688e-01 -6.941537193831813501e-02
-4.742360896435029449e-01 8.915836841865286688e-01 -1.820666412025482295e-01
1.689317035138680756e-01 8.915836841865286688e-01 3.370424099637703841e-01
3.437444305730955052e-01 8.915836841865286688e-01 8.317935203998928773e-02
-2.408873861234637481e-01 8.915836841865286688e-01 -6.677659139463737459e-02
4.030935294500798127e-01 8.915836841865286688e-01 1.018541793464465828e-01
1.579888989417886913e-01 8.915836841865286688e-01 -3.549066586875739837e-01
-5.917733738930605059e-01 8.915836841865286688e-01 3.080059196358430618e-01
-6.176140946378013558e-02 8.915836841865286688e-01 -2.345696590610573951e-01
1.994292652991632719e-01 8.915836841865286688e-01 2.381705820951456609e-01
-2.531352434513308713e-01 8.915836841865286688e-01 7.609119839000137719e-02
3.478534516643497221e-01 8.915836841865286688e-01 -2.554725828007643751e-02
-6.570853224326148601e-01 8.915836841865286688e-01 -7.261150629858423300e-02
-4.562737986803181434e-01 8.915836841865286688e-01 1.100867825055393545e-01
-4.615521959425726295e-01 8.915836841865286688e-01 8.794879271179077695e-02
-7.246812250250638243e-01 8.915836841865286688e-01 -3.214631230030935427e-01
1.918688890867787933e-01 8.915836841865286688e-01 7.432198206776814697e-02
-3.310926072299308909e-01 8.915836841865286688e-01 2.833967227671200378e-02
3.916417971211644256e-01 8.915836841865286688e-01 -1.836319029349409715e-01
1.478991945958505749e-01 8.915836841865286688e-01 4.736069040566447813e-02
6.001467353946777772e-01 8.915836841865286688e-01 1.559383750939317692e-01
2.508702257091414145e-01 8.915836841865286688e-01 -7.847970961335611062e-02
-3.948307016192270091e-01 8.915836841865286688e-01 3.078558694929816597e-01
-5.218341488303166464e-01 8.915836841865286688e-01 3.097424386363997195e-01
1.756372638998998925e-01 8.915836841865286688e-01 -1.640702689040709206e-01
-2.137345383268290655e-01 8.915836841865286688e-01 -2.264358542906107219e-01
7.244709773310543666e-01 8.915836841865286688e-01 3.032956455461229273e-01
7.244709773310543666e-01 8.915836841865286688e-01 -3.213936051525096427e-01
1.923996438916827922e-01 8.915836841865286688e-01 -1.181543485161543339e-01
4.245549528377617898e-01 8.915836841865286688e-01 -9.872549329156339593e-02
-4.804351731301437223e-01 8.915836841865286688e-01 2.058613320697780802e-01
1.376070061745389150e-01 8.915836841865286688e-01 8.833767170425256554e-02
-4.247171781426597459e-01 8.915836841865286688e-01 1.328494237779482834e-01
-2.585469241081619907e-01 8.915836841865286688e-01 -1.255406129322920450e-01
-4.983017797353182510e-01 8.915836841865286688e-01 1.041531989642228567e-01
2.900117454504417824e-01 8.915836841865286688e-01 2.489001332359024876e-01
2.276503121047497580e-01 8.915836841865286688e-01 -2.705773250548088593e-01
-4.323239764784122530e-01 8.915836841865286688e-01 -1.950329025147470585e-01
-3.009709493094480659e-01 8.915836841865286688e-01 2.560844181649641338e-01
1.894081417112566668e-01 8.915836841865286688e-01 -3.152988849425957807e-01
-3.381538735320674949e-01 8.915836841865286688e-01 2.331290674133442153e-01
7.886148760459905649e-01 8.915836841865286688e-01 1.474558853931195734e-01
-7.888249939887235218e-01 8.915836841865286688e-01 1.474558853931195734e-01
-3.901249976578011758e-01 8.915836841865286688e-01 -1.852854387857753027e-01
3.252949235666747763e-01 8.915836841865286688e-01 -2.535449038230244145e-01
1.598827197398819122e-01 8.915836841865286688e-01 9.008444105565228954e-02
3.597522348080218202e-01 8.915836841865286688e-01 5.885078586199663647e-02
-6.610191504669847840e-01 8.915836841865286688e-01 5.153605764963275354e-02
-3.973061541394184992e-01 8.915836841865286688e-01 -2.097469856053661152e-01
-1.275306447521258879e-01 8.915836841865286688e-01 9.304523543397480445e-02
5.123401396359089643e-01 8.915836841865286688e-01 2.572316068676838707e-01
7.237737804720252299e-01 8.915836841865286688e-01 -8.594643423772876933e-02
-7.238779637059048477e-01 8.915836841865286688e-01 -8.588628731266943761e-02
4.852810299281371531e-01 8.915836841865286688e-01 2.871735016029881571e-01
8.349756659537133086e-02 8.915836841865286688e-01 -2.084839578463539567e-01
4.050064625793759615e-02 8.915836841865286688e-01 -1.403965718353532843e-01
5.234208698149017680e-01 8.915836841865286688e-01 1.436075778667678104e-01
1.733454526863733025e-01 8.915836841865286688e-01 1.858246641988540448e-01
4.000427741867212394e-01 8.915836841865286688e-01 -2.042236900171329750e-01
-4.156208351527532208e-01 8.915836841865286688e-01 3.869982153328965085e-02
-7.093420478915882232e-02 8.915836841865286688e-01 -1.299351156654506012e-01
-4.486496713407494563e-01 8.915836841865286688e-01 -2.988369010859958513e-02
8.297286685003704698e-02 8.915836841865286688e-01 -2.487288824429614853e-01
7.548814471762049783e-01 8.915836841865286688e-01 -1.604444992337153153e-01
-7.550915651189379352e-01 8.915836841865286688e-01 -1.604444992337153153e-01
6.574513578247505041e-01 8.915836841865286688e-01 -7.254505922821066766e-02
-3.200783097045031833e-01 8.915836841865286688e-01 -3.554792510707431297e-01
7.367198294187080609e-01 8.915836841865286688e-01 -2.003961282782117936e-01
-7.369277992569746027e-01 8.915836841865286688e-01 -2.003870024384317161e-01
2.303230730660635051e-01 8.915836841865286688e-01 2.162374695669815328e-01
1.297066527841224670e-01 8.915836841865286688e-01 6.779298433542800539e-02
1.626573931204776668e-01 8.915836841865286688e-01 -2.040646437857679962e-01
-3.974361072512317405e-01 8.915836841865286688e-01 9.991487351753787494e-02
1.456315603701774097e-01 8.915836841865286688e-01 -9.111184697177374114e-02
2.365305471352508460e-01 8.915836841865286688e-01 3.377863893663800021e-01
5.719985223056300860e-01 8.915836841865286688e-01 -3.554082050384582692e-01
5.719985223056300860e-01 8.915836841865286688e-01 3.373102454320715538e-01
7.108935010057165771e-01 8.915836841865286688e-01 -5.507350200953563951e-02
-6.322679154688931602e-02 8.915836841865286688e-01 -2.729136265393644623e-01
-4.449030311479352240e-01 8.915836841865286688e-01 6.975557331006318473e-02
4.838899953264592657e-01 8.915836841865286688e-01 -2.214782886847010690e-01
1.965266859935612120e-01 8.915836841865286688e-01 -2.448645578423669089e-01
7.373251479571707456e-01 8.915836841865286688e-01 1.822542839067530229e-01
-7.367364161241455323e-01 8.915836841865286688e-01 1.824207836281121486e-01
-3.415965785680981637e-01 8.915836841865286688e-01 -1.339272164397750098e-01
4.125697650856393305e-03 8.915836841865286688e-01 -1.536198704262872472e-01
6.926109262249099396e-01 8.915836841865286688e-01 -6.208034485958714710e-02
2.924151571785619241e-01 8.915836841865286688e-01 3.389549870297212664e-01
3.570704056741619836e-01 8.915836841865286688e-01 -1.202325170445288777e-01
1.453465112325280084e-01 8.915836841865286688e-01 -1.967135638956590132e-02
-6.196374172697771687e-01 8.915836841865286688e-01 -6.364771144602079933e-02
-5.992066947721400583e-01 8.915836841865286688e-01 1.123084195988092830e-02
-5.726612992016260062e-01 8.915836841865286688e-01 -3.553400279510647852e-01
3.011254280967968350e-02 8.915836841865286688e-01 2.360360870959641311e-01
-3.351980817862942330e-01 8.915836841865286688e-01 3.377115372966513207e-01
-6.795480075873860937e-01 8.915836841865286688e-01 7.806532081143603696e-02
5.291644398201965638e-01 8.915836841865286688e-01 1.183334997201530014e-01
-1.375842205759645887e-01 8.915836841865286688e-01 -1.935894195637484216e-01
2.436014582822735308e-01 8.915836841865286688e-01 1.695180860245869836e-01
-4.216754045509963911e-01 8.915836841865286688e-01 -1.532951606484561358e-01
-1.444297970061422243e-01 8.915836841865286688e-01 -3.554547857467197369e-01
-4.734898035515335279e-01 8.915836841865286688e-01 2.841050280819839013e-01
1.610260547978651161e-02 8.915836841865286688e-01 -3.147076227924199832e-01
-6.309766019316051522e-02 8.915836841865286688e-01 -3.601561214151701718e-01
5.509031705193638828e-01 8.915836841865286688e-01 3.091449195913351100e-01
5.514404128880925349e-01 8.915836841865286688e-01 -3.276124540836030108e-01
9.975600704605902536e-02 8.915836841865286688e-01 -1.361644600331315125e-01
-4.821970368800422291e-01 8.915836841865286688e-01 -2.186547423232924892e-01
1.187515650912016052e-01 8.915836841865286688e-01 1.054553251078852449e-01
-6.923521086375841183e-01 8.915836841865286688e-01 -6.253244155731864373e-02
-3.880411056564523897e-01 8.915836841865286688e-01 -2.640286339620585565e-01
3.888292075342154042e-01 8.915836841865286688e-01 -2.654823095966662438e-01
-2.118350949734210953e-01 8.915836841865286688e-01 -1.250041490712222592e-01
-1.273719589409733899e-01 8.915836841865286688e-01 -1.538489102629166383e-01
-5.519296690769901481e-01 8.915836841865286688e-01 -3.275974894363806733e-01
-3.290355016587739323e-01 8.915836841865286688e-01 -1.890195651888121053e-01
-1.820004036261180236e-01 8.915836841865286688e-01 3.048703791216997860e-01
-5.681099992592283376e-01 8.915836841865286688e-01 5.875302548356246130e-02
-5.194978617625695128e-01 8.915836841865286688e-01 -1.082489994137878289e-02
1.101067997939205734e-01 8.915836841865286688e-01 3.434087064989049809e-02
-3.864366734553669191e-01 8.915836841865286688e-01 -1.089849774876802679e-02
1.045584045420900610e-01 8.915836841865286688e-01 -2.395357017503646768e-01
7.511999421241908337e-01 8.915836841865286688e-01 2.748438721373127058e-01
7.511999421241908337e-01 8.915836841865286688e-01 -2.929418317436994212e-01
-7.513826248803495700e-01 8.915836841865286688e-01 -2.929187360164834386e-01
-7.512145104764383907e-01 8.915836841865286688e-01 2.747366687493114634e-01
-7.388447013654751983e-01 8.915836841865286688e-01 5.998463901685447547e-02
7.408368662554878359e-01 8.915836841865286688e-01 6.183637715093804471e-02
5.509820592954723928e-01 8.915836841865286688e-01 -4.217945449111009520e-02
-1.986974033913563031e-01 8.915836841865286688e-01 -1.587982225508464268e-02
-2.018625416133487671e-01 8.915836841865286688e-01 1.886047582994455629e-01
-2.055270204145251689e-01 8.915836841865286688e-01 2.213856542148697759e-01
6.192134980569986569e-01 8.915836841865286688e-01 -6.384141568501823516e-02
-4.926236043733764336e-01 8.915836841865286688e-01 -6.828095652792881554e-02
-5.453313841630021974e-01 8.915836841865286688e-01 2.310522396481601015e-01
3.514268262957514349e-02 8.915836841865286688e-01 1.488756382773282483e-01
6.711803937009749865e-02 8.915836841865286688e-01 8.833486042659520476e-02
-2.813519363807505114e-01 8.915836841865286688e-01 -6.777194227024184447e-02
-2.632919427063655227e-01 8.915836841865286688e-01 -5.231065041190936793e-02
3.121181768503852316e-01 8.915836841865286688e-01 -2.937771848785779572e-01
-6.091620344628640993e-01 8.915836841865286688e-01 -1.734607436209814890e-01
-3.021070082360062803e-01 8.915836841865286688e-01 1.383169695677143873e-01
-7.640441004440633455e-01 8.915836841865286688e-01 2.061385096299868380e-01
-7.632770685646633746e-01 8.915836841865286688e-01 -2.244138680649582218e-01
7.630719244208625796e-01 8.915836841865286688e-01 -2.244281983726065521e-01
7.627613286985523988e-01 8.915836841865286688e-01 2.064007657933987216e-01
-1.026851970958727808e-02 8.915836841865286688e-01 -3.156397415459462064e-01
5.641587771781448879e-01 8.915836841865286688e-01 3.255520474915950258e-02
1.278060802445378291e-03 8.915836841865286688e-01 1.546924024193744307e-01
2.810750109474316472e-01 8.915836841865286688e-01 2.860087388107077078e-01
-1.962156507258505933e-01 8.915836841865286688e-01 -1.848173826810350362e-01
6.205950319818756000e-01 8.915836841865286688e-01 1.943582470689880215e-01
-4.529796156054479161e-01 8.915836841865286688e-01 -2.527841288385130336e-01
-5.124124804966807140e-02 8.915836841865286688e-01 -1.104781332474774336e-01
4.513211418304435840e-01 8.915836841865286688e-01 -2.517746206569622114e-01
-2.877000608336576781e-01 8.915836841865286688e-01 -2.356623020737057955e-02
-6.489787265366736557e-02 8.915836841865286688e-01 1.865281035359634410e-01
-4.156784346595753660e-02 8.915836841865286688e-01 1.816036821727938233e-01
-1.763859649745519176e-01 8.915836841865286688e-01 8.674369168932909158e-02
6.090572745566444901e-01 8.915836841865286688e-01 -1.734928498535095454e-01
-4.908518074424217947e-01 8.915836841865286688e-01 1.260726299411211171e-01
4.909244420079197924e-02 8.915836841865286688e-01 -1.981045333168126588e-01
-3.497602693825640485e-01 8.915836841865286688e-01 -2.455223823973843311e-01
4.583256347407097531e-01 8.915836841865286688e-01 -9.994776253327564142e-05
-3.299781490393719624e-02 8.915836841865286688e-01 -2.013751593265949713e-01
-6.241429438451893130e-01 8.915836841865286688e-01 -2.053229935953080829e-02
4.076144675937777850e-01 8.915836841865286688e-01 -6.224139502733352231e-02
-1.490999347010001086e-01 8.915836841865286688e-01 -3.288148735796838085e-01
4.432172519376331721e-01 8.915836841865286688e-01 -3.588937712461575669e-01
4.434231672134295588e-01 8.915836841865286688e-01 3.408715143012009952e-01
1.046661413520057760e-01 8.915836841865286688e-01 -3.016478396434857379e-01
-9.327632217444986606e-02 8.915836841865286688e-01 2.131819711736267220e-01
3.344410189627126107e-01 8.915836841865286688e-01 1.607647909929227625e-01
-7.334501334603328315e-01 8.915836841865286688e-01 -1.475314867085949014e-02
4.457305918305609627e-01 8.915836841865286688e-01 3.001434536181629142e-01
2.714523535296388679e-01 8.915836841865286688e-01 -2.124568410149486886e-01
-3.229178587233460518e-01 8.915836841865286688e-01 -3.309674472567235570e-01
4.553936407889017796e-02 8.915836841865286688e-01 -9.681013378157213300e-02
5.536894594907429412e-02 8.915836841865286688e-01 2.528041109633885619e-02
-2.989661335027182232e-01 8.915836841865286688e-01 1.233348272433764693e-02
-1.213882625733131437e-01 8.915836841865286688e-01 2.765296007215261032e-01
5.074369830652758484e-01 8.915836841865286688e-01 1.087520599578598868e-01
3.470270513675492996e-01 8.915836841865286688e-01 1.896233634871594964e-01
3.873198109347576468e-01 8.915836841865286688e-01 8.228266980175445722e-02
-6.718519259565971513e-01 8.915836841865286688e-01 -2.951677293087668907e-01
-1.148628546262893124e-01 8.915836841865286688e-01 3.383551901289138519e-01
-5.949697821726880331e-01 8.915836841865286688e-01 1.181386277196671275e-01
-1.805930924476442934e-01 8.915836841865286688e-01 1.216817959808395681e-02
-7.862624206947703698e-01 8.915836841865286688e-01 -1.206067053091298275e-01
7.860523027520374129e-01 8.915836841865286688e-01 -1.206067053091298275e-01
1.248261694963916785e-02 8.915836841865286688e-01 3.411239814516418001e-01
3.425370084444654406e-01 8.915836841865286688e-01 2.693743944952076697e-01
-2.362731712287748920e-01 8.915836841865286688e-01 -3.141314406239344437e-01
-6.118443437082717040e-02 8.915836841865286688e-01 1.460219896197730016e-01
-6.574858646231526160e-01 8.915836841865286688e-01 3.181011525229546222e-02
-7.879490142874937542e-01 8.915836841865286688e-01 2.647041772030170326e-02
7.895725269673692370e-01 8.915836841865286688e-01 2.794708816446587335e-02
-1.944946874616647614e-01 8.915836841865286688e-01 4.911204430216700029e-02
-5.203216237834146218e-01 8.915836841865286688e-01 -2.353028979413349653e-01
5.406241302274036320e-01 8.915836841865286688e-01 1.559187682343726455e-01
5.187754569466201948e-01 8.915836841865286688e-01 -2.347876267887592516e-01
7.394317276582304532e-02 8.915836841865286688e-01 -3.927860520252793308e-02
-4.439526174644232714e-01 8.915836841865286688e-01 -3.588928485704135918e-01
4.424095502414563952e-01 8.915836841865286688e-01 2.686637035034230570e-01
-4.950926414137857279e-01 8.915836841865286688e-01 3.377610590338466223e-01
2.029555734076817775e-01 8.915836841865286688e-01 -8.013673433184730077e-02
-7.469096558153959231e-02 8.915836841865286688e-01 -3.262787407125185002e-01
4.446388790069467634e-01 8.915836841865286688e-01 1.053243628194770465e-01
6.209210825228971276e-01 8.915836841865286688e-01 -2.140811395781463400e-01
-3.082448102265834822e-02 8.915836841865286688e-01 -2.947389445903788596e-01
-1.921986809568648480e-01 8.915836841865286688e-01 3.391207082434214426e-01
-3.112076085412873380e-02 8.915836841865286688e-01 -1.359769838554058252e-01
-2.171771280283917582e-01 8.915836841865286688e-01 -8.392411642548074091e-02
-3.540088307632835440e-01 8.915836841865286688e-01 1.673042409114249562e-01
-4.030354803379160300e-01 8.915836841865286688e-01 2.020268790963942185e-01
-7.132166184861585823e-01 8.915836841865286688e-01 1.507340369769385457e-01
7.130065005434256253e-01 8.915836841865286688e-01 1.507340369769385457e-01
-3.823939264327842480e-01 8.915836841865286688e-01 8.083711083033190414e-02
1.887100798437175431e-01 8.915836841865286688e-01 3.412784863883294717e-01
-1.712372901551746929e-01 8.915836841865286688e-01 4.844356572566856783e-02
2.051360291923593204e-01 8.915836841865286688e-01 1.957618098772519188e-01
6.710794948151550532e-01 8.915836841865286688e-01 -2.951679167272774351e-01
6.710794948151550532e-01 8.915836841865286688e-01 2.770699571208907197e-01
8.409409088064945248e-02 8.915836841865286688e-01 1.217802702961804928e-01
-2.959707676176142610e-01 8.915836841865286688e-01 -2.680335080287133964e-01
-6.022794212516516810e-01 8.915836841865286688e-01 7.656608806197036377e-02
-1.805080476943065615e-01 8.915836841865286688e-01 -2.024308445457692618e-01
2.390607835277399340e-01 8.915836841865286688e-01 -3.594450555863646368e-01
-6.488868150256230649e-01 8.915836841865286688e-01 -1.129917758933837307e-01
6.853147668618931876e-01 8.915836841865286688e-01 4.864899082997597296e-02
-7.415252762369957118e-01 8.915836841865286688e-01 3.086268083274850693e-01
4.843492239875307054e-02 8.915836841865286688e-01 -3.352582787199632208e-01
4.699744592586198033e-01 8.915836841865286688e-01 9.817488006613285523e-02
-2.766019007331891877e-01 8.915836841865286688e-01 -8.858397493587857885e-02
2.475160496189916098e-03 8.915836841865286688e-01 2.082117764434716078e-01
2.873695481231466342e-01 8.915836841865286688e-01 1.507845747942470303e-02
3.145344195380698205e-01 8.915836841865286688e-01 -1.538115926590020478e-02
5.306800933145430221e-01 8.915836841865286688e-01 2.214796806399026152e-01
-4.009246000710564029e-01 8.915836841865286688e-01 2.408391621819946093e-01
-6.548966490670926621e-01 8.915836841865286688e-01 -4.855507179782552613e-02
-4.243086346234048456e-01 8.915836841865286688e-01 -8.591820612668701895e-02
-2.731272480495238741e-01 8.915836841865286688e-01 -1.813777916756402209e-01
5.256140700582927483e-01 8.915836841865286688e-01 -2.098322321940228330e-01
-3.167543991705072393e-01 8.915836841865286688e-01 -5.271977811679454291e-03
-6.213795732424570728e-01 8.915836841865286688e-01 -2.141177150213092184e-01
-2.596258059722117428e-01 8.915836841865286688e-01 2.689816806316850384e-01
-2.325717032538563919e-02 8.915836841865286688e-01 -3.516004018404714909e-02
4.224357396555895594e-01 8.915836841865286688e-01 4.563327531478911930e-03
-4.915453035385339287e-02 8.915836841865286688e-01 -3.236689523707300120e-01
-2.246227075515630500e-02 8.915836841865286688e-01 -9.077942420139543944e-02
-2.751861557217433196e-01 8.915836841865286688e-01 3.364711583437916542e-01
2.631369258057172367e-01 8.915836841865286688e-01 1.628639503944723788e-01
-5.657397317738481757e-01 8.915836841865286688e-01 -6.351925768229148284e-02
-5.264300543782113317e-01 8.915836841865286688e-01 -2.103480223517044945e-01
-4.484110587432764694e-01 8.915836841865286688e-01 4.659863232519668996e-02
7.126709060751774683e-01 8.915836841865286688e-01 8.485860747718648733e-02
-7.131190022758093772e-01 8.915836841865286688e-01 8.590502268849568857e-02
1.035042475046167032e-01 8.915836841865286688e-01 -9.201095123383645769e-02
-9.137255377849209936e-02 8.915836841865286688e-01 9.738995692738508514e-02
-3.586912415190415815e-02 8.915836841865286688e-01 3.393848818423637614e-01
-5.309731223229559038e-01 8.915836841865286688e-01 1.166635287076293603e-01
9.056894914020728257e-03 8.915836841865286688e-01 -8.576303801680837391e-02
-1.940255645130954942e-01 8.915836841865286688e-01 2.375917328170877862e-01
2.907810119351592615e-01 8.915836841865286688e-01 -2.678830686320225474e-01
4.985175919828905844e-01 8.915836841865286688e-01 2.264540562445225280e-01
5.155227221961856676e-01 8.915836841865286688e-01 -1.442642411355196941e-01
-7.052084417849753262e-01 8.915836841865286688e-01 7.107822147573840052e-03
-6.695616573415799078e-01 8.915836841865286688e-01 3.074107216969468315e-01
5.940902485609041994e-01 8.915836841865286688e-01 1.229872743373640886e-01
1.874138166660006561e-03 8.915836841865286688e-01 9.165682469144373345e-02
-4.740156710583562361e-01 8.915836841865286688e-01 2.537071798477885665e-02
5.162562162221490808e-02 8.915836841865286688e-01 -2.687289460371056204e-01
-6.947138846227580711e-01 8.915836841865286688e-01 4.342220574214922246e-02
1.527200167731438130e-01 8.915836841865286688e-01 -3.308505557734107150e-01
-1.342134554143457059e-01 8.915836841865286688e-01 -2.913820772321533692e-01
2.974089810578474657e-01 8.915836841865286688e-01 -1.539473770649672779e-01
4.443801982120426652e-01 8.915836841865286688e-01 2.049424479464542481e-01
-5.538700994169618586e-01 8.915836841865286688e-01 -4.216574410622719871e-02
7.260072036111294702e-01 8.915836841865286688e-01 5.294590618640238056e-02
5.794317855174757614e-01 8.915836841865286688e-01 1.595442351517497581e-01
5.188473492137394422e-02 8.915836841865286688e-01 -2.301263917780357188e-02
1.371198333817284787e-01 8.915836841865286688e-01 -1.626731504092062131e-01
3.673141392021072593e-01 8.915836841865286688e-01 -1.422301015403021895e-01
-1.701969011698182266e-01 8.915836841865286688e-01 2.357358138085393906e-01
3.885920942848263282e-01 8.915836841865286688e-01 2.168821459926475181e-01
-5.091545701119947614e-02 8.915836841865286688e-01 -2.574053503021325739e-01
-4.049237362479284896e-01 8.915836841865286688e-01 -2.775358571795789597e-01
1.960075223026906954e-01 8.915836841865286688e-01 3.067858395493505141e-01
1.761929453666993273e-01 8.915836841865286688e-01 3.031118024041390413e-01
2.789635107578065654e-01 8.915836841865286688e-01 4.747549145174490004e-02
-4.506560153291801485e-01 8.915836841865286688e-01 -1.053441924063865665e-01
-5.512046521344243777e-02 8.915836841865286688e-01 9.635937137180818068e-02
