0.231794 -0.0713785 -0.140026
0.178474 -0.0864808 0.0874884
0.23446 -0.0713914 -0.140026
0.175808 -0.0854158 0.0874884
-0.189433 -0.084112 0.0863346
0.183806 -0.0885323 0.0874884
0.239792 -0.0717877 -0.140026
-0.18664 -0.0867329 0.0874884
-0.452345 -0.0867329 0.0874884
0.411828 -0.0893537 0.0874884
0.186472 -0.0893723 0.0874884
0.0112091 -0.0893537 0.0874884
-0.186767 -0.0893537 0.0863856
0.24779 -0.0710089 -0.141208
0.250456 -0.072258 -0.140026
-0.493011 -0.0893537 0.0874884
0.409867 -0.0919745 0.0874884
0.191804 -0.0921067 0.0874884
0.00916913 -0.0919745 0.0874884
0.255788 -0.0710089 -0.141284
-0.453974 -0.0919745 0.0874884
-0.491467 -0.0919745 0.0874884
0.26112 -0.0721183 -0.140026
0.407974 -0.0945953 0.0874884
0.405084 -0.0984369 0.0874884
0.197278 -0.0972157 0.0874884
0.0051843 -0.0977886 0.0874884
0.266452 -0.0710089 -0.141682
-0.486292 -0.0972157 0.0874884
0.269118 -0.0710089 -0.14213
0.271784 -0.0733443 -0.140026
0.271784 -0.0710089 -0.142181
0.402418 -0.100721 0.0874884
0.197136 -0.0998365 0.0856197
0.437499 -0.0710089 -0.140026
-0.180337 -0.0998365 0.0874884
-0.480027 -0.0683881 -0.140339
-0.459525 -0.0998365 0.0874884
-0.482694 -0.101107 0.0874884
0.199802 -0.102457 0.086458
0.00251827 -0.102457 0.0868338
-0.181436 -0.102457 0.0853002
-0.461367 -0.102457 0.0865183
-0.464029 -0.103459 0.0874884
0.399752 -0.105078 0.0866204
0.202468 -0.105078 0.087108
0.199802 -0.105078 0.0854178
-0.178074 -0.105078 0.0874884
-0.14789 -0.0683881 -0.140026
-0.469363 -0.105187 0.0874884
-0.47203 -0.105611 0.0874884
0.205134 -0.0685567 -0.140026
0.2078 -0.0686894 -0.140026
-0.474693 -0.10529 0.0874884
-0.480027 -0.105078 0.0850379
0.210466 -0.0683881 -0.140803
0.399752 -0.107698 0.0849026
0.394419 -0.107698 0.087187
0.202468 -0.107698 0.0864904
-0.00201605 -0.107698 0.0874884
-0.178769 -0.107698 0.0851773
0.389088 -0.110319 0.0868951
0.205134 -0.112518 0.0874884
0.22113 -0.0683881 -0.142444
0.202468 -0.110319 0.0856565
-0.00426677 -0.110319 0.0874884
0.386422 -0.11294 0.0855975
0.383756 -0.11294 0.0858833
0.440151 -0.0683881 -0.140026
0.381089 -0.11294 0.086596
0.378424 -0.113189 0.0874884
0.362428 -0.114353 0.0874884
0.373092 -0.115561 0.0861349
-0.47736 -0.0657672 -0.142147
-0.474693 -0.0657672 -0.142254
-0.47203 -0.0657672 -0.14198
-0.469363 -0.0657672 -0.141368
0.370426 -0.115561 0.0863297
0.365094 -0.115561 0.0860701
-0.466696 -0.0657672 -0.140228
0.359762 -0.115939 0.0874884
-0.261892 -0.0657672 -0.140026
0.206754 -0.115561 0.0874884
0.2078 -0.116742 0.0874884
0.351763 -0.119718 0.0874884
-0.149444 -0.0657672 -0.141151
-0.146777 -0.0657672 -0.140129
0.237126 -0.11967 0.0874884
0.23446 -0.11854 0.0874884
0.231794 -0.118477 0.0874884
0.229128 -0.118801 0.0874884
0.226462 -0.119254 0.0874884
0.223796 -0.119203 0.0874884
0.22113 -0.119509 0.0874884
0.218464 -0.119758 0.0874884
0.215798 -0.120116 0.0874884
0.202468 -0.0679736 -0.140026
0.213132 -0.119537 0.0874884
0.441854 -0.0657672 -0.140026
0.210466 -0.118598 0.0874884
-0.485361 -0.0631464 -0.141435
0.349098 -0.121114 0.0874884
-0.482694 -0.0631464 -0.142614
0.303776 -0.121691 0.0874884
0.30111 -0.121758 0.0874884
0.295778 -0.121721 0.0874884
0.290446 -0.121707 0.0874884
-0.146777 -0.0631464 -0.140436
0.28778 -0.121914 0.0874884
0.285114 -0.121635 0.0874884
0.282448 -0.121559 0.0874884
0.279782 -0.121653 0.0874884
0.277116 -0.122369 0.0874884
0.186472 -0.0631464 -0.141427
0.27445 -0.122594 0.0874884
0.271784 -0.122637 0.0874884
0.269118 -0.122371 0.0874884
0.266452 -0.12248 0.0874884
0.263786 -0.1228 0.0874884
0.442477 -0.0631464 -0.140026
0.26112 -0.12302 0.0874884
-0.49069 -0.0605256 -0.140223
0.258454 -0.122989 0.0874884
0.255788 -0.122369 0.0874884
-0.488023 -0.0605256 -0.141787
-0.464029 -0.0605256 -0.141261
0.250456 -0.122285 0.0874884
0.242458 -0.120802 0.0872185
-0.263374 -0.0605256 -0.140026
-0.169804 -0.120802 0.0874884
0.309108 -0.123423 0.087329
0.306442 -0.123423 0.086083
0.338434 -0.126044 0.0852372
0.173142 -0.0605256 -0.140188
0.335767 -0.126044 0.0871245
0.330436 -0.127614 0.0874884
0.325104 -0.127849 0.0874884
0.178474 -0.0624777 -0.140026
0.322438 -0.12777 0.0874884
0.319772 -0.12709 0.0874884
0.31444 -0.126044 0.0868019
0.443642 -0.0605256 -0.140026
0.311774 -0.126044 0.0862689
-0.493357 -0.0579053 -0.140679
0.309108 -0.126044 0.0857985
-0.49069 -0.0579053 -0.141891
-0.0162512 -0.126044 0.0874884
-0.46138 -0.0579053 -0.140026
-0.263976 -0.0579053 -0.140026
-0.149444 -0.0579053 -0.14237
0.32777 -0.128664 0.0869439
0.325104 -0.128664 0.0869328
-0.166295 -0.128664 0.0874884
-0.16544 -0.133906 0.0854182
-0.0237683 -0.136527 0.0874884
-0.162613 -0.139147 0.0874884
-0.0268076 -0.141768 0.0868192
-0.0294737 -0.14415 0.0874884
-0.0317115 -0.147009 0.0874884
0.170476 -0.0600331 -0.140026
-0.160159 -0.147009 0.0874884
-0.156903 -0.157492 0.0874884
-0.0437195 -0.160113 0.0874884
0.445961 -0.0579053 -0.140026
-0.496175 -0.0552844 -0.140026
-0.0481358 -0.165354 0.0869177
-0.0508014 -0.167425 0.0874884
-0.154358 -0.165354 0.0874884
-0.0534675 -0.173216 0.0853912
-0.0561336 -0.173216 0.0871768
-0.46016 -0.0552844 -0.140026
-0.264491 -0.0552844 -0.140026
-0.0641318 -0.181079 0.0871551
-0.0667974 -0.183699 0.0870726
-0.149744 -0.18632 0.0874884
-0.144111 -0.0552844 -0.140604
-0.0801273 -0.196803 0.0853122
-0.0827934 -0.196803 0.0861345
-0.148341 -0.196803 0.0874884
-0.0854595 -0.199423 0.0854103
-0.0881256 -0.199423 0.0861979
-0.0987894 -0.201313 0.0874884
-0.0961234 -0.202044 0.0864189
-0.101456 -0.202044 0.0873211
0.44813 -0.0552844 -0.140026
-0.147858 -0.202044 0.0874884
-0.109454 -0.204665 0.0868977
-0.459077 -0.0526636 -0.140026
-0.265231 -0.0526636 -0.140026
-0.112119 -0.204665 0.0871285
-0.122784 -0.205667 0.0874884
-0.146952 -0.207285 0.0874884
-0.130781 -0.209906 0.0863381
-0.146057 -0.209906 0.0874884
-0.146777 -0.209906 0.0865445
0.15448 -0.0539434 -0.140026
-0.13878 -0.212527 0.086686
0.157146 -0.0550333 -0.140026
-0.144111 -0.212527 0.0872833
-0.141445 -0.215148 0.0858429
0.44949 -0.0526636 -0.140026
-0.496024 -0.0500433 -0.142295
-0.498287 -0.0500433 -0.140026
-0.149444 0.259413 0.0848431
-0.15211 0.259878 0.0848431
-0.458221 -0.0500433 -0.140026
-0.141445 0.257235 0.0848431
-0.154775 0.259201 0.0841748
-0.130781 0.254295 0.0848431
-0.133448 0.255193 0.0848431
-0.155969 0.25658 0.0848431
-0.122784 0.251919 0.0848431
0.146514 -0.0500433 -0.140026
-0.125449 0.25281 0.0848431
0.149148 -0.0515591 -0.140026
0.44774 -0.0500433 -0.141886
0.449903 -0.0500433 -0.140026
-0.498576 -0.0474224 -0.140026
-0.157441 0.253959 0.0838891
-0.114785 0.249587 0.0848431
-0.266425 -0.0474224 -0.140026
-0.0987894 0.243572 0.0848431
-0.141445 -0.0474224 -0.140419
-0.104122 0.245476 0.0848431
-0.0961234 0.242452 0.0848431
-0.0827934 0.23609 0.0848431
-0.15994 0.238235 0.0848431
-0.0747956 0.231501 0.0848431
-0.0774617 0.232921 0.0848431
0.448205 -0.0474224 -0.140026
-0.498744 -0.0448016 -0.140026
-0.0721296 0.229822 0.0848431
-0.0641318 0.224823 0.0848431
-0.161672 0.225131 0.0848431
-0.161964 0.222511 0.0848431
-0.162554 0.21989 0.0848431
-0.0534675 0.217269 0.0846146
-0.144111 -0.0448016 -0.141907
-0.162617 0.217269 0.0848431
-0.0506053 0.214649 0.0848431
-0.0440213 0.209407 0.0848431
-0.163382 0.209407 0.0848431
0.138484 -0.0451278 -0.140026
0.14115 -0.0467719 -0.140026
-0.0411103 0.206786 0.0848431
0.448638 -0.0448016 -0.140026
-0.0339938 0.198924 0.0848431
-0.499095 -0.0421808 -0.140026
-0.0289008 0.191062 0.0848431
-0.0274923 0.188441 0.0848431
-0.165414 0.188441 0.0848431
-0.0248378 0.1832 0.0848431
-0.166378 0.1832 0.0848431
-0.139518 -0.0421808 -0.140026
-0.0222507 0.177959 0.0848431
0.311774 0.170345 0.0848431
-0.0201384 0.172717 0.0848431
0.450189 -0.0421808 -0.140026
-0.16785 0.172717 0.0848431
0.343766 0.170097 0.0822938
0.3411 0.170097 0.0822232
0.317106 0.16891 0.0848431
-0.267629 -0.03956 -0.140026
0.31444 0.170008 0.0848431
-0.141445 -0.03956 -0.141007
0.309108 0.16853 0.0848431
-0.0188098 0.169892 0.0848431
0.3411 0.167476 0.0824091
0.338434 0.167476 0.0826461
0.338434 0.165936 0.0848431
0.451488 -0.03956 -0.140026
0.335767 0.166748 0.0848431
0.330436 0.165752 0.0848431
0.306442 0.16602 0.0848431
-0.168755 0.167476 0.0848431
-0.455549 -0.0369395 -0.140026
-0.267743 -0.0369395 -0.140026
-0.144111 -0.0369395 -0.142383
0.3411 0.164855 0.0841092
0.32777 0.164382 0.0848431
0.325104 0.162906 0.0848431
0.322438 0.164162 0.0848431
0.130486 -0.0385649 -0.140026
0.451895 -0.0369395 -0.140026
0.303776 0.164064 0.0848431
-0.498953 -0.0343188 -0.140026
0.346432 0.160184 0.0848431
-0.455012 -0.0343188 -0.140026
-0.268171 -0.0343188 -0.140026
0.343766 0.161882 0.0848431
0.343766 0.162234 0.0842529
0.343359 0.162234 0.0848431
0.301425 0.162234 0.0848431
0.299274 0.159614 0.0848431
-0.0134777 0.156993 0.0847411
0.352349 0.154372 0.0848431
0.451999 -0.0343188 -0.140026
0.296381 0.154372 0.0848431
-0.45452 -0.0316981 -0.140026
-0.268487 -0.0316981 -0.140026
-0.144111 -0.0316981 -0.142392
-0.0108117 0.154372 0.0826133
0.293112 0.150022 0.0848431
0.255788 0.150075 0.0848431
0.290446 0.148749 0.0848431
0.28778 0.147974 0.0848431
0.285114 0.149131 0.082619
0.282448 0.149131 0.0824384
0.253122 0.148501 0.0848431
0.451487 -0.0316981 -0.140026
-0.171872 0.149131 0.0848431
-0.453845 -0.0290774 -0.140026
0.279782 0.145426 0.0848431
0.250456 0.145234 0.0848431
-0.00883074 0.14651 0.0848431
-0.13878 -0.0290774 -0.140146
0.27445 0.141577 0.0848431
0.120653 -0.0290774 -0.140026
0.122488 -0.0290774 -0.142547
0.266452 0.143889 0.0840435
0.450635 -0.0290774 -0.140026
-0.499929 -0.0264567 -0.140026
0.24779 0.142599 0.0848431
0.271784 0.140203 0.0848431
0.269118 0.141268 0.0843053
0.245124 0.14088 0.0848431
-0.144111 -0.0264567 -0.142551
-0.173876 0.141268 0.0848431
-0.13878 -0.0264567 -0.140253
0.359466 0.138648 0.0848431
0.11838 -0.0264567 -0.140026
0.239792 0.138183 0.0848431
0.229128 0.138138 0.0848431
0.450878 -0.0264567 -0.140026
-0.499867 -0.0238359 -0.140026
0.226462 0.137603 0.0848431
-0.00490986 0.138648 0.0848431
-0.269421 -0.0238359 -0.140026
0.361132 0.136027 0.0848431
0.22113 0.136027 0.0832878
0.218464 0.133406 0.0828032
0.363336 0.130786 0.0848431
0.218464 0.130786 0.0839161
0.215798 0.130786 0.0831276
0.213132 0.130786 0.0827917
-0.00129886 0.130786 0.0848431
-0.000147715 0.130786 0.0829172
0.451121 -0.0238359 -0.140026
-0.49953 -0.0212153 -0.140026
0.364646 0.128165 0.0848431
-0.450788 -0.0212153 -0.140026
0.218464 0.128165 0.0835571
-0.000365109 0.128165 0.0848431
-0.47203 0.125805 0.0848431
0.221251 0.125544 0.0848431
0.218464 0.125544 0.0829554
0.215798 0.125544 0.0823883
-0.464029 0.123267 0.0848431
-0.466696 0.124541 0.0848431
0.451713 -0.0212153 -0.140026
-0.499583 -0.0185945 -0.140026
-0.480027 0.124436 0.0848431
-0.482694 0.123411 0.0848431
0.22113 0.122924 0.0839388
0.00199531 0.122924 0.0848431
-0.485361 0.121355 0.0848431
0.381089 0.120303 0.0838287
-0.141445 -0.0185945 -0.141179
0.222411 0.120303 0.0848431
-0.460146 0.120303 0.0848431
0.223183 0.117682 0.0848431
0.00402322 0.117682 0.0848431
-0.491555 0.117682 0.0848431
0.38342 0.115062 0.0848431
0.223212 0.115062 0.0848431
-0.270039 -0.0159739 -0.140026
0.386422 0.111654 0.0848431
0.385496 0.112441 0.0848431
0.222603 0.112441 0.0848431
0.111305 -0.0159739 -0.140026
0.22113 0.110953 0.0848431
0.22113 0.112441 0.0829794
0.453072 -0.0159739 -0.140653
0.218464 0.1103 0.0848431
0.215798 0.109956 0.0848431
0.213132 0.110425 0.0848431
0.2078 0.111077 0.0848431
0.205134 0.111775 0.0848431
0.202468 0.112281 0.0848431
0.199802 0.112441 0.0829061
-0.189433 0.110567 0.0848431
-0.493605 0.112441 0.0848431
0.391754 0.10982 0.0832745
0.195148 0.10982 0.0848431
0.454884 -0.0133531 -0.140026
0.191804 0.108254 0.0848431
-0.450699 -0.0107324 -0.142525
-0.493872 0.10982 0.0848431
0.394419 0.106881 0.0848431
-0.146777 -0.0107324 -0.142659
0.189138 0.106772 0.0848431
-0.141445 -0.0107324 -0.140778
-0.192029 0.107199 0.0848431
0.108146 -0.0107324 -0.140026
-0.452172 0.107199 0.0848431
-0.493947 0.107199 0.0848431
0.396643 0.104579 0.0848431
0.187247 0.104579 0.0848431
0.456137 -0.0107324 -0.140026
0.00916629 0.104579 0.0848431
-0.194226 0.104579 0.0848431
-0.450841 0.104579 0.0848431
0.399752 0.101958 0.0835633
0.185725 0.101958 0.0848431
-0.141445 -0.00811173 -0.140438
0.183806 0.100186 0.0848431
-0.196801 0.101958 0.0848431
0.45733 -0.00811173 -0.140026
-0.449044 0.101958 0.0848431
0.405084 0.0971975 0.0848431
0.18114 0.09917 0.0848431
-0.447575 -0.00549101 -0.140026
0.178474 0.0993373 0.0833756
-0.146777 -0.00549101 -0.141937
0.173142 0.098034 0.0848431
0.0112925 0.0993373 0.0848431
-0.200097 0.0985993 0.0848431
-0.446168 0.0993373 0.0848431
0.106492 -0.00549101 -0.142541
0.413081 0.0918431 0.0848431
0.410416 0.0935649 0.0848431
0.169899 0.0940961 0.0848431
0.45911 -0.00549101 -0.140026
0.169299 0.0914753 0.0848431
0.0149387 0.0914753 0.0848431
-0.441163 0.0914753 0.0848431
0.0163678 0.0888545 0.0848431
-0.439858 0.0888545 0.0848431
-0.213428 0.0862336 0.0839325
-0.144111 -0.00287029 -0.140508
0.429077 0.0812862 0.0848431
0.1037 -0.00287029 -0.140026
0.426411 0.0830098 0.0848431
0.161827 0.0836133 0.0848431
0.460444 -0.00287029 -0.140026
-0.499525 -0.000249606 -0.140026
-0.43755 0.0836133 0.0848431
0.431744 0.0794229 0.0848431
0.16113 0.0809925 0.0848431
-0.15211 -0.000249606 -0.142586
0.020308 0.0809925 0.0848431
-0.146777 -0.000249606 -0.141101
-0.218759 0.0809925 0.083128
0.161428 0.0783716 0.0848431
0.0216513 0.0783716 0.0848431
0.102519 -0.000249606 -0.140026
-0.221425 0.0783716 0.0824455
-0.435092 0.0783716 0.0848431
0.436034 0.0757508 0.0848431
-0.499499 0.00237112 -0.140026
-0.448036 0.00237112 -0.141734
0.161262 0.0757508 0.0848431
-0.270094 0.00237112 -0.140026
0.0231285 0.0757508 0.0848431
-0.219113 0.0757508 0.0848431
-0.146777 0.00237112 -0.140462
-0.432039 0.0757508 0.0825889
0.438922 0.07313 0.0848431
0.46282 0.00237112 -0.140026
-0.499734 0.00499184 -0.140026
-0.448036 0.00499184 -0.142274
0.160298 0.07313 0.0848431
0.159812 0.072665 0.0848431
-0.15211 0.00499184 -0.141876
-0.149444 0.00499184 -0.140867
0.159812 0.07313 0.084233
-0.221425 0.07313 0.0840896
0.100299 0.00499184 -0.140026
-0.224091 0.07313 0.0825321
-0.285409 0.07313 0.0824677
0.463587 0.00499184 -0.140026
-0.288075 0.07313 0.0834422
-0.290741 0.07313 0.0837661
0.441495 0.0705097 0.0848431
0.157252 0.0705097 0.0848431
-0.224091 0.0705097 0.083164
-0.430894 0.0705097 0.0848431
-0.149444 0.00761252 -0.140379
-0.493739 0.0705097 0.0848431
0.0994498 0.00761252 -0.140026
-0.224091 0.0678888 0.0833215
-0.282743 0.0678888 0.0834759
0.464159 0.00761252 -0.140026
-0.298739 0.0678888 0.0841251
-0.301405 0.0678888 0.082517
0.0290689 0.065268 0.0848431
-0.220948 0.065268 0.0848431
-0.426705 0.065268 0.0833295
-0.15211 0.0102332 -0.140697
0.448052 0.0626472 0.0848431
0.150914 0.0626472 0.0848431
-0.221425 0.0626472 0.0846186
-0.281255 0.0626472 0.0848431
-0.426958 0.0626472 0.0848431
-0.493832 0.0626472 0.0848431
-0.445645 0.012854 -0.140026
0.449827 0.0600269 0.0848431
0.0345102 0.0600269 0.0824171
-0.221425 0.0600269 0.0843333
-0.15211 0.012854 -0.140267
-0.304071 0.0600269 0.0844992
-0.424043 0.0600269 0.0836375
0.451324 0.057406 0.0848431
0.149148 0.057406 0.084651
-0.221425 0.057406 0.0843177
0.464796 0.012854 -0.140026
-0.499432 0.0154746 -0.140026
-0.279682 0.057406 0.0848431
-0.424043 0.057406 0.0847708
0.146482 0.0529139 0.0848431
-0.306737 0.0547852 0.0839849
-0.154775 0.0154746 -0.140414
-0.309403 0.0547852 0.0825241
0.453942 0.0521644 0.0848431
0.0398422 0.0521644 0.0828893
0.0971906 0.0154746 -0.140026
0.463736 0.0154746 -0.141275
-0.224091 0.0521644 0.0826741
-0.278812 0.0521644 0.0848431
-0.306674 0.0521644 0.0848431
-0.309403 0.0521644 0.0836991
-0.312069 0.0521644 0.0839197
-0.314735 0.0521644 0.0844526
-0.421376 0.0521644 0.0846523
-0.160107 0.0180954 -0.141536
0.455137 0.049544 0.0848431
0.144426 0.049544 0.0848431
0.0425082 0.049544 0.0825716
0.0392559 0.049544 0.0848431
-0.277411 0.049544 0.082347
0.465038 0.0180954 -0.140026
-0.320067 0.049544 0.0846945
-0.325399 0.049544 0.0822915
-0.445094 0.020716 -0.140026
-0.218759 0.0469231 0.0847171
-0.221425 0.0469231 0.0837763
-0.325399 0.0469231 0.0834027
-0.160107 0.020716 -0.141137
-0.418709 0.0469231 0.0847313
-0.156884 0.020716 -0.140026
0.142768 0.0443024 0.0848431
-0.221425 0.0443024 0.0835696
-0.413377 0.0443024 0.0824344
0.463736 0.020716 -0.141145
0.457376 0.0416817 0.0848431
0.142214 0.0416817 0.0848431
0.0478402 0.0416817 0.0839862
0.0505062 0.039061 0.0841988
-0.218759 0.039061 0.0843736
-0.410711 0.039061 0.0826093
-0.16544 0.0233368 -0.142103
-0.413377 0.039061 0.0839565
0.14204 0.0364403 0.0848431
0.0531722 0.0364403 0.0844828
-0.278052 0.0364403 0.0848431
0.141716 0.0338196 0.0848431
0.14115 0.0323755 0.0848431
0.0611702 0.0338196 0.0830193
-0.328345 0.0338196 0.0848431
0.464683 0.0233368 -0.140026
-0.410711 0.0338196 0.0836623
0.0691682 0.0311989 0.0824544
-0.445392 0.0259575 -0.140026
0.0665022 0.0311989 0.0828156
0.0638362 0.0311989 0.0835345
-0.278259 0.0311989 0.0848431
-0.408045 0.0311989 0.0828875
0.139858 0.0285782 0.0848431
0.138484 0.0285782 0.0829443
0.0718342 0.0285782 0.0829905
0.0691682 0.0285782 0.083452
0.461069 0.0259575 -0.142291
0.463736 0.0259575 -0.14047
0.0638362 0.0280029 0.0848431
-0.221425 0.0285782 0.0822667
-0.329589 0.0285782 0.0848431
-0.330731 0.0285782 0.0831342
-0.26938 0.0285782 -0.140026
-0.168106 0.0285782 -0.141749
-0.16544 0.0285782 -0.140976
-0.405379 0.0285782 0.0822924
0.459841 0.0259575 0.0848431
0.13889 0.0259575 0.0848431
-0.218759 0.0259575 0.0831777
-0.278225 0.0259575 0.0848431
-0.405379 0.0259575 0.0827162
-0.408045 0.0259575 0.0837542
0.463736 0.0285782 -0.14012
-0.49432 0.0259575 0.0848431
0.460074 0.0233368 0.0848431
0.137548 0.0233368 0.0848431
0.135818 0.0233368 0.0830743
0.0878301 0.0233368 0.0824189
0.085164 0.0233368 0.0827388
0.0771662 0.0233368 0.0838895
0.0745002 0.0233368 0.0843142
-0.329837 0.0233368 0.0848431
0.460612 0.020716 0.0848431
0.130486 0.020716 0.0822148
0.0958283 0.020716 0.0823696
0.0904961 0.020716 0.0830015
0.0920555 0.0311989 -0.140026
0.461069 0.0311989 -0.141435
-0.216093 0.020716 0.0834702
-0.330107 0.020716 0.0848431
-0.405379 0.020716 0.0832536
-0.448036 0.0338196 -0.142246
-0.445973 0.0338196 -0.140026
0.460828 0.0180954 0.0848431
0.136086 0.0180954 0.0848431
0.133152 0.0180954 0.0835398
0.103826 0.0180954 0.0824841
0.0958283 0.0180954 0.083227
0.0824983 0.0180954 0.0847761
-0.213428 0.0180954 0.0842374
-0.408045 0.0180954 0.0844628
0.462438 0.0338196 -0.140026
-0.494222 0.0180954 0.0848431
0.134536 0.0154746 0.0848431
-0.446244 0.0364403 -0.140026
-0.269136 0.0364403 -0.140026
-0.173437 0.0364403 -0.142487
0.130486 0.0154746 0.0832674
0.106492 0.0154746 0.0829266
0.10116 0.0154746 0.0834063
0.0931622 0.0154746 0.0842161
0.0904566 0.0364403 -0.140026
-0.494387 0.0154746 0.0848431
0.461245 0.012854 0.0848431
0.133152 0.012854 0.0846386
0.462065 0.0364403 -0.140026
-0.49901 0.039061 -0.140026
0.122488 0.012854 0.0824571
0.119822 0.012854 0.0824353
-0.269209 0.039061 -0.140026
0.111824 0.012854 0.0827149
0.103826 0.012854 0.0836388
0.0958283 0.012854 0.0847792
-0.216093 0.012854 0.0825738
-0.330499 0.012854 0.0848431
-0.405379 0.012854 0.0837653
-0.408045 0.012854 0.0847486
0.461932 0.039061 -0.140026
0.463736 0.0102332 0.0825263
-0.448036 0.0416817 -0.140689
0.130486 0.0102332 0.0842032
0.125154 0.0102332 0.0833672
0.122488 0.0102332 0.0830158
0.117156 0.0102332 0.0828258
0.111824 0.0102332 0.0831755
0.103826 0.0102332 0.0844304
-0.405379 0.0102332 0.0837027
0.463736 0.00761252 0.0824677
0.0888676 0.0416817 -0.140026
0.12782 0.00761252 0.0842498
0.462061 0.0416817 -0.140026
-0.498948 0.0443024 -0.140026
0.125154 0.00761252 0.0836929
-0.448036 0.0443024 -0.140245
0.119822 0.00761252 0.0830832
0.11449 0.00761252 0.0830739
-0.176103 0.0443024 -0.142381
-0.173437 0.0443024 -0.141623
0.111824 0.00761252 0.0833486
0.106492 0.00761252 0.0844886
-0.330238 0.00761252 0.0848431
0.12782 0.00237764 0.0848431
-0.213428 0.00499184 0.0829669
-0.498851 0.0469231 -0.140026
-0.279084 0.00499184 0.0848431
-0.330291 0.00499184 0.0848431
-0.402713 0.00499184 0.0828289
-0.26888 0.0469231 -0.140026
-0.408045 0.00499184 0.0845511
0.463736 0.00237112 0.0829323
0.122488 0.00237112 0.0839161
0.119822 0.00237112 0.0836956
0.0876246 0.0469231 -0.140026
0.11449 0.00237112 0.0836539
0.109158 0.00237112 0.0844593
0.462656 0.0469231 -0.140026
0.122488 -0.000249606 0.0838984
-0.450699 0.049544 -0.141072
0.11449 -0.000249606 0.0837954
-0.268607 0.049544 -0.140026
-0.210761 -0.000249606 0.0835758
-0.279358 -0.000249606 0.0848431
-0.408045 -0.000249606 0.0839769
0.460357 -0.00287029 0.0848431
0.122488 -0.00287029 0.0838243
0.119822 -0.00287029 0.0836907
0.111824 -0.00287029 0.0842108
-0.329779 -0.00287029 0.0848431
-0.498775 0.0521644 -0.140026
-0.405379 -0.00287029 0.0827624
-0.494471 -0.00287029 0.0848431
0.459678 -0.00549101 0.0848431
0.125154 -0.00549101 0.0844562
-0.176103 0.0521644 -0.141463
0.122488 -0.00549101 0.0839805
0.11449 -0.00549101 0.0837621
-0.208095 -0.00549101 0.0844926
0.0862183 0.0521644 -0.140026
0.463081 0.0521644 -0.140026
-0.279845 -0.00549101 0.0848431
-0.494502 -0.00549101 0.0848431
-0.45124 0.0547852 -0.140026
0.458411 -0.00811173 0.0848431
0.461069 -0.00811173 0.0829345
0.117156 -0.00811173 0.0835283
-0.176103 0.0547852 -0.141037
-0.208095 -0.00811173 0.0841708
-0.329133 -0.00811173 0.0848431
-0.408045 -0.00811173 0.0827539
0.0857586 0.0547852 -0.140026
0.463034 0.0547852 -0.140026
0.461069 -0.0107324 0.0825374
0.458409 -0.0107324 0.0848431
0.125154 -0.0107324 0.084288
0.122488 -0.0107324 0.0837497
-0.181436 0.057406 -0.142379
0.11449 -0.0107324 0.0833637
0.111824 -0.0107324 0.0839636
0.109158 -0.0107324 0.0846479
-0.280133 -0.0107324 0.0848431
-0.328623 -0.0107324 0.0848431
0.457918 -0.0133531 0.0848431
0.461069 0.057406 -0.141545
0.46244 0.057406 -0.140026
0.458403 -0.0133531 0.0841234
0.122488 -0.0133531 0.0835438
-0.452554 0.0600269 -0.140026
-0.267806 0.0600269 -0.140026
0.119822 -0.0133531 0.0833095
-0.208095 -0.0133531 0.0838536
-0.413377 -0.0133531 0.0838935
0.457412 -0.0159739 0.0848431
0.458403 -0.0159739 0.0834972
0.0854892 0.0600269 -0.140026
0.12782 -0.0159739 0.0844912
0.461767 0.0600269 -0.140026
0.125154 -0.0159739 0.083759
0.119822 -0.0159739 0.0830242
0.11449 -0.0159739 0.0830783
0.111824 -0.0159739 0.0835252
-0.210761 -0.0159739 0.0824495
-0.328065 -0.0159739 0.0839534
-0.413377 -0.0159739 0.0832194
-0.325399 -0.0206188 0.0848431
0.455925 -0.0212153 0.0848431
0.0878301 0.0626472 -0.142246
0.130486 -0.0212153 0.08441
0.458403 0.0626472 -0.141528
0.122488 -0.0212153 0.0822942
0.460646 0.0626472 -0.140026
-0.498873 0.065268 -0.140026
0.11449 -0.0212153 0.082442
-0.453805 0.065268 -0.140026
-0.267598 0.065268 -0.140026
0.111824 -0.0212153 0.0827247
-0.205429 -0.0212153 0.0843856
-0.416042 -0.0212153 0.0828667
-0.177837 0.065268 -0.140026
0.0878301 0.065268 -0.142016
0.12782 -0.0238359 0.0830473
0.111824 -0.0238359 0.0825214
0.103826 -0.0238359 0.0844287
-0.205429 -0.0238359 0.0843057
-0.325399 -0.0238359 0.0837147
-0.494409 -0.0238359 0.0848431
0.45603 -0.0264567 0.0848431
0.130486 -0.0264567 0.0833579
0.109158 -0.0264567 0.082592
-0.186767 0.0678888 -0.142398
0.10116 -0.0264567 0.0845063
-0.418709 -0.0264567 0.0827615
0.455602 -0.0290774 0.0848431
0.133152 -0.0290774 0.0846599
0.130486 -0.0290774 0.082521
0.106492 -0.0290774 0.0827797
0.453072 0.0678888 -0.142143
0.10116 -0.0290774 0.0839317
0.0904961 -0.031592 0.0848431
-0.205429 -0.0290774 0.0838757
0.133152 -0.0316981 0.0838358
0.0984944 -0.0316981 0.0836659
0.0931622 -0.0316981 0.0843754
-0.317401 -0.0316981 0.0843648
-0.266873 0.0705097 -0.140026
-0.320067 -0.0316981 0.0834258
-0.322733 -0.0316981 0.0822986
-0.494702 -0.0316981 0.0848431
0.452857 -0.0343188 0.0848431
-0.281748 -0.0343188 0.0848431
-0.314735 -0.0343188 0.0838713
0.0878301 0.0705097 -0.140885
-0.424043 -0.0343188 0.0833934
0.450406 0.0705097 -0.142001
0.452201 -0.0369395 0.0848431
0.0931622 -0.0369395 0.0826479
0.085164 -0.0369395 0.0839578
-0.205429 -0.0369395 0.082939
-0.498766 0.07313 -0.140026
0.4528 -0.03956 0.0848431
0.0878301 -0.03956 0.082304
0.0824983 -0.03956 0.0831533
0.0771662 -0.03956 0.0840723
-0.189433 0.07313 -0.141911
0.0745002 -0.03956 0.0842631
-0.184102 0.07313 -0.140332
-0.202763 -0.03956 0.0840923
-0.205429 -0.03956 0.0827442
-0.282462 -0.03956 0.0848431
-0.304071 -0.03956 0.0844646
-0.306737 -0.03956 0.0823448
0.44774 0.07313 -0.142122
-0.426705 -0.03956 0.083479
0.0771662 -0.0421808 0.0828485
0.0665022 -0.0421808 0.0848343
0.0611702 -0.0447368 0.0848431
-0.498141 0.0757508 -0.140026
-0.20103 -0.0421808 0.0848431
-0.282959 -0.0421808 0.0848431
-0.266384 0.0757508 -0.140026
-0.192099 0.0757508 -0.141944
-0.189433 0.0757508 -0.141361
-0.429372 -0.0421808 0.0846128
0.0718342 -0.0448016 0.0823128
0.0665022 -0.0448016 0.0838247
0.0904961 0.0757508 -0.141179
-0.283564 -0.0448016 0.0848431
-0.301283 -0.0448016 0.0848431
-0.304071 -0.0448016 0.0823998
0.454053 -0.0474224 0.0848431
0.44774 0.0757508 -0.140671
0.0638362 -0.0474224 0.0827735
-0.432181 -0.0474224 0.0848431
-0.496943 0.0783716 -0.140026
-0.496024 0.0783716 -0.140971
-0.493357 0.0783716 -0.141902
-0.494848 -0.0474224 0.0848431
-0.457431 0.0783716 -0.140026
0.453637 -0.0500433 0.0848431
0.0558382 -0.0500433 0.0837932
-0.202763 -0.0500433 0.0830615
-0.298739 -0.0500433 0.0842276
-0.301405 -0.0500433 0.0824282
-0.494635 -0.0500433 0.0848431
0.453253 -0.0526636 0.0848431
0.0931622 0.0783716 -0.141676
0.0906386 0.0783716 -0.140026
-0.285409 -0.0526636 0.0834724
-0.288075 -0.0526636 0.0845977
-0.434373 -0.0526636 0.0848431
0.143607 -0.0552844 0.0848431
0.117156 0.0783716 -0.140791
0.0505062 -0.0552844 0.0830606
-0.202763 -0.0552844 0.0826776
-0.435731 -0.0552844 0.0848431
0.453908 -0.0579053 0.0848431
0.145237 -0.0579053 0.0848431
0.0451742 -0.0579053 0.0839481
-0.493357 0.0809925 -0.140382
-0.200097 -0.0579053 0.0839108
-0.290741 -0.0579053 0.0823097
-0.458132 0.0809925 -0.140026
-0.265498 0.0809925 -0.140026
-0.293407 -0.0579053 0.0822325
-0.436801 -0.0579053 0.0848431
-0.192099 0.0809925 -0.14067
0.453815 -0.0605256 0.0848431
0.147314 -0.0605256 0.0848431
0.0931622 0.0809925 -0.140122
0.0451742 -0.0605256 0.0825254
0.0958283 0.0809925 -0.141344
0.0984944 0.0809925 -0.141958
0.10116 0.0809925 -0.142099
0.0425082 -0.0605256 0.0838824
0.453709 -0.0631464 0.0848431
0.148802 -0.0631464 0.0848431
-0.200097 -0.0631464 0.083061
-0.439099 -0.0631464 0.0848431
0.453419 -0.0657672 0.0848431
-0.197139 -0.0657672 0.0848431
-0.495119 -0.0657672 0.0848431
0.119822 0.0809925 -0.140153
0.452943 -0.0683881 0.0848431
0.445851 0.0809925 -0.140026
0.0318443 -0.068471 0.0848431
-0.494915 -0.0683881 0.0848431
0.15448 -0.073296 0.0848431
0.151814 -0.0710089 0.0847717
-0.197432 -0.0710089 0.0838797
-0.442649 -0.0710089 0.0848431
0.157146 -0.0752041 0.0848431
-0.200097 0.0836133 -0.142354
-0.197432 -0.0736292 0.0832225
-0.194765 0.0836133 -0.140959
0.44774 -0.0766508 0.0848431
0.445073 -0.0775148 0.0848431
0.442407 -0.0779439 0.0848431
0.15898 -0.0762501 0.0848431
-0.194667 -0.0762501 0.0848431
0.0984944 0.0836133 -0.140414
0.10116 0.0836133 -0.140641
0.103826 0.0836133 -0.140267
-0.494608 -0.0762501 0.0848431
0.437076 -0.0803965 0.0848431
0.43441 -0.080838 0.0848431
0.431744 -0.0808784 0.0848431
0.426411 -0.0795769 0.0848431
0.121204 0.0836133 -0.140026
0.423746 -0.0794437 0.0848431
0.444717 0.0836133 -0.140026
0.16781 -0.0813949 0.0848431
0.163738 -0.0788709 0.0848431
-0.49041 0.0862336 -0.140026
-0.193359 -0.0788709 0.0848431
0.437076 -0.0814917 0.0831897
-0.264732 0.0862336 -0.140026
-0.202763 0.0862336 -0.142391
0.429077 -0.0814917 0.0841584
-0.197432 0.0862336 -0.140848
-0.194765 0.0862336 -0.140248
0.426411 -0.0814917 0.0835452
0.423746 -0.0814917 0.083002
0.42108 -0.0814917 0.0840115
0.418414 -0.0827342 0.0848431
-0.194765 -0.0814917 0.0829004
-0.449803 -0.0814917 0.0848431
0.122071 0.0862336 -0.140026
0.431744 -0.084112 0.0825485
-0.488023 0.0888545 -0.140302
0.429077 -0.084112 0.0825445
-0.485361 0.0888545 -0.141708
0.415748 -0.0855582 0.0848431
-0.461367 0.0874717 -0.140026
0.173142 -0.0848527 0.0848431
0.0185143 -0.084112 0.084323
-0.450859 -0.084112 0.0848431
-0.494648 -0.084112 0.0848431
0.18114 -0.0879723 0.0848431
0.178474 -0.0872001 0.0848431
0.0160349 -0.0867329 0.0848431
-0.192099 -0.0867329 0.0828511
-0.49432 -0.0867329 0.0848431
0.412979 -0.0893537 0.0848431
0.122568 0.0888545 -0.140026
0.183806 -0.0896297 0.0848431
0.443337 0.0888545 -0.140026
-0.49377 -0.0893537 0.0848431
0.191804 -0.0943494 0.0848431
0.186472 -0.0919745 0.0837031
-0.482694 0.0914753 -0.141452
0.0119823 -0.0919745 0.0848431
-0.453148 -0.0919745 0.0848431
-0.493029 -0.0919745 0.0848431
-0.464029 0.0913563 -0.140026
0.409818 -0.0945953 0.0848431
0.189138 -0.0945953 0.0827251
-0.492061 -0.0945953 0.0848431
0.408045 -0.0972157 0.0848431
-0.202763 0.0914753 -0.141253
-0.200097 0.0914753 -0.1403
0.191804 -0.0972157 0.0824233
-0.186767 -0.0972157 0.0828147
0.405084 -0.10222 0.0848431
0.19447 -0.0998365 0.0832958
-0.457382 -0.0998365 0.0848431
-0.485361 0.0917029 -0.140026
-0.485361 -0.100916 0.0848431
0.402418 -0.10492 0.0848431
-0.184102 -0.102457 0.0822818
-0.47736 0.0940961 -0.14146
-0.474693 0.0940961 -0.141654
-0.47203 0.0940961 -0.14165
-0.459849 -0.102457 0.0848431
-0.482694 -0.103232 0.0848431
-0.464029 -0.105684 0.0848431
-0.263655 0.0940961 -0.140026
-0.466696 -0.106712 0.0848431
0.397085 -0.109959 0.0848431
-0.202763 0.0940961 -0.140418
0.000784747 -0.107698 0.0848431
-0.47203 -0.107698 0.0846776
-0.474693 -0.107698 0.0844078
0.399752 -0.110319 0.0830717
0.44096 0.0940961 -0.140026
0.199802 -0.110319 0.0832434
-0.000147715 -0.110319 0.0837515
0.397085 -0.11294 0.0830597
0.394419 -0.11294 0.0841846
-0.469363 0.0958848 -0.140026
0.391754 -0.11294 0.0846909
0.202468 -0.11294 0.0847034
-0.210761 0.0967164 -0.142462
-0.176012 -0.11294 0.0848431
-0.205429 0.0967164 -0.14072
0.394419 -0.115561 0.0823563
0.389088 -0.115561 0.0838389
0.124887 0.0967164 -0.140026
0.383756 -0.115561 0.0841256
0.381089 -0.115561 0.0843936
0.367759 -0.11714 0.0848431
0.439301 0.0967164 -0.140026
0.362428 -0.117055 0.0848431
-0.210761 0.0993373 -0.141693
0.359762 -0.117824 0.0848431
0.2078 -0.117976 0.0848431
0.205134 -0.115681 0.0848431
-0.0057202 -0.115561 0.0848431
0.126222 0.0993373 -0.140026
0.389088 -0.118181 0.0826465
0.386422 -0.118181 0.0828329
0.23446 0.0978604 -0.140026
0.383756 -0.118181 0.0825525
0.239792 0.0973137 -0.140026
0.242458 0.0969858 -0.140026
0.245124 0.0970564 -0.140026
0.24779 0.097446 -0.140026
0.373092 -0.118181 0.0831671
0.370426 -0.118181 0.0835434
0.362428 -0.118181 0.0838966
0.357096 -0.118912 0.0848431
0.35443 -0.12022 0.0848431
0.231794 -0.120323 0.0848431
0.229128 -0.119909 0.0848431
0.226462 -0.119584 0.0848431
0.223796 -0.119008 0.0848431
0.22113 -0.118926 0.0848431
0.218464 -0.119119 0.0848431
0.215798 -0.119442 0.0848431
0.213132 -0.119688 0.0848431
0.210466 -0.119556 0.0848431
-0.00763811 -0.118181 0.0848431
0.357096 -0.120802 0.0822711
0.229128 0.0995347 -0.140026
0.349098 -0.122933 0.0848431
0.258454 0.101535 -0.140026
0.298444 -0.123205 0.0848431
0.437076 0.101919 -0.140026
0.285114 -0.123393 0.0848431
0.282448 -0.122887 0.0848431
-0.261418 0.104579 -0.140026
-0.216093 0.104579 -0.142261
0.279782 -0.122681 0.0848431
0.277116 -0.122132 0.0848431
0.27445 -0.121742 0.0848431
0.269118 -0.121763 0.0848431
0.266452 -0.122151 0.0848431
0.263786 -0.122686 0.0848431
0.26112 -0.123033 0.0848431
0.143816 0.104579 -0.141465
0.258454 -0.122929 0.0848431
0.255788 -0.122638 0.0848431
0.216234 0.104579 -0.140026
0.253122 -0.122878 0.0848431
0.250456 -0.123218 0.0848431
0.261822 0.104579 -0.140026
0.24779 -0.122887 0.0848431
0.435911 0.104579 -0.140026
0.242458 -0.12214 0.0848431
-0.260602 0.107199 -0.140026
0.239792 -0.122032 0.0848431
0.237126 -0.121737 0.0848431
0.23446 -0.120868 0.0848431
0.346432 -0.124378 0.0848431
0.343766 -0.125138 0.0848431
0.303776 -0.124036 0.0848431
0.135818 0.106552 -0.140026
0.138484 0.106647 -0.140026
0.14115 0.105635 -0.140026
0.30111 -0.123423 0.0847127
0.295778 -0.123647 0.0848431
0.146409 0.107199 -0.140026
0.28778 -0.123739 0.0848431
0.335767 -0.127088 0.0848431
0.333102 -0.128178 0.0848431
0.306442 -0.126044 0.0844921
0.303776 -0.126044 0.0832177
-0.0136698 -0.126044 0.0848431
0.264141 0.107199 -0.140026
-0.170771 -0.126044 0.0825179
0.435249 0.107199 -0.140026
0.330436 -0.129226 0.0848431
-0.218759 0.10982 -0.141945
-0.216093 0.10982 -0.141099
0.32777 -0.129948 0.0848431
-0.213391 0.10982 -0.140026
0.325104 -0.130613 0.0848431
0.147284 0.10982 -0.140026
0.31444 -0.12903 0.0848431
0.309108 -0.128664 0.0838047
0.322438 -0.131285 0.0844256
0.204544 0.10982 -0.140026
0.2078 0.108609 -0.140026
0.319772 -0.131285 0.0846683
0.317106 -0.131285 0.0841256
0.309108 -0.131285 0.0825001
-0.0192261 -0.133906 0.0848431
0.434813 0.10982 -0.140026
-0.258854 0.112441 -0.140026
-0.162117 -0.144389 0.0848431
-0.0284943 -0.147009 0.0848431
-0.218759 0.112441 -0.141099
-0.0321398 -0.15225 0.0840896
-0.159415 -0.15225 0.0848431
-0.0375585 -0.157492 0.0848431
0.148261 0.112441 -0.140026
0.173142 0.112441 -0.142138
0.175808 0.112441 -0.141568
-0.0399827 -0.160113 0.0848431
0.18114 0.112441 -0.141501
-0.156156 -0.162733 0.0848431
0.19447 0.112441 -0.140615
0.197136 0.112039 -0.140026
-0.0475997 -0.167975 0.0848431
-0.152466 -0.175837 0.0848431
-0.15197 -0.178458 0.0848431
0.266452 0.110017 -0.140026
-0.0587996 -0.181079 0.0838686
-0.0641318 -0.18632 0.0841158
-0.150411 -0.18632 0.0848431
-0.0667974 -0.188941 0.0840217
-0.150057 -0.188941 0.0848431
-0.0694635 -0.194182 0.0823989
-0.0747956 -0.194275 0.0848431
-0.0774617 -0.196803 0.0842769
-0.149071 -0.196803 0.0848431
-0.149444 -0.199423 0.0831742
-0.0934577 -0.203278 0.0848431
-0.148775 -0.202044 0.0848431
0.149464 0.115062 -0.140026
-0.0881256 -0.204665 0.0827051
-0.101456 -0.207285 0.0838966
0.16781 0.115062 -0.14098
-0.106788 -0.207285 0.0847837
-0.148005 -0.207285 0.0848431
0.173142 0.114597 -0.140026
-0.104122 -0.209906 0.0827291
-0.114785 -0.209906 0.0842507
0.18114 0.11434 -0.140026
0.183806 0.114818 -0.140026
0.186472 0.114844 -0.140026
0.189138 0.114386 -0.140026
0.191804 0.113406 -0.140026
-0.117452 -0.209906 0.0843404
-0.114785 -0.212527 0.0825378
-0.122784 -0.212527 0.0836734
-0.128115 -0.212527 0.0844069
0.431744 0.115062 -0.140407
-0.146974 -0.212527 0.0848431
-0.146777 -0.215148 0.0835283
-0.133448 -0.217768 0.0825085
-0.226757 0.117682 -0.142435
-0.144111 -0.217768 0.0844819
-0.146777 -0.217768 0.0822312
-0.13878 -0.220389 0.0823537
-0.144111 -0.220389 0.0829705
0.151814 0.116546 -0.140026
-0.146777 0.260012 0.0821975
0.157146 0.116892 -0.140026
0.159812 0.1164 -0.140026
0.162478 0.116102 -0.140026
-0.15211 0.261136 0.0821975
-0.154775 0.260693 0.0821975
0.271784 0.116774 -0.140026
-0.141445 0.25832 0.0821975
-0.156583 0.259201 0.0821975
-0.133448 0.256254 0.0821975
0.428395 0.117682 -0.140026
-0.157736 0.25658 0.0821975
-0.125449 0.253893 0.0821975
-0.158148 0.253959 0.0821975
-0.109454 0.248972 0.0821975
-0.114785 0.250643 0.0821975
-0.159447 0.246097 0.0821975
-0.0907916 0.241082 0.0821975
-0.0854595 0.238773 0.0821975
-0.0801273 0.236016 0.0821975
-0.160873 0.238235 0.0821975
-0.0721296 0.231265 0.0821975
0.423746 0.120303 -0.142369
-0.162773 0.227752 0.0817808
-0.0587996 0.222825 0.0821975
-0.254595 0.122924 -0.140026
-0.0534675 0.218839 0.0821975
-0.232089 0.122924 -0.14197
-0.163795 0.21989 0.0821975
-0.0401376 0.207967 0.0821975
-0.0364939 0.204166 0.0821975
-0.165006 0.204166 0.0821975
-0.0341464 0.201545 0.0821975
0.279782 0.122924 -0.141686
-0.16544 0.201545 0.0819516
-0.0319831 0.198924 0.0821975
0.424131 0.122924 -0.140026
-0.0301389 0.196303 0.0821975
-0.165798 0.196303 0.0821975
-0.0268076 0.191062 0.0817746
-0.16631 0.191062 0.0821975
-0.166618 0.188441 0.0821975
-0.229423 0.125544 -0.140252
-0.168106 0.180579 0.0813752
0.346432 0.172717 0.0806252
0.343766 0.172717 0.0812913
0.282448 0.125544 -0.141086
0.3411 0.172717 0.0811138
0.335767 0.172717 0.0798154
0.311774 0.170596 0.0821975
-0.0182929 0.172717 0.0821975
-0.251648 0.128165 -0.140026
-0.250751 0.128165 -0.141077
-0.245419 0.128165 -0.1426
-0.169102 0.172717 0.0821975
-0.240087 0.128165 -0.141375
0.349098 0.170097 0.0807717
0.346432 0.170097 0.0817803
0.338434 0.168263 0.0821975
0.335767 0.167589 0.0821975
0.335767 0.170097 0.0805014
0.317106 0.168966 0.0821975
0.31444 0.169989 0.0821975
0.309108 0.168966 0.0821975
0.343766 0.167476 0.0818518
0.422652 0.128165 -0.140026
0.333102 0.167081 0.0821975
0.32777 0.165434 0.0821975
0.318827 0.167476 0.0821975
0.306442 0.166896 0.0821975
0.349098 0.164855 0.0798726
0.346432 0.164855 0.0805995
0.343766 0.164855 0.0818065
0.342656 0.164855 0.0821975
0.325104 0.164028 0.0821975
0.320911 0.164855 0.0821975
0.322438 0.163379 0.0821975
0.349098 0.162234 0.0801864
0.349098 0.160354 0.0821975
0.295778 0.130786 -0.142612
0.346432 0.161858 0.0821975
0.346432 0.162234 0.0818731
-0.248085 0.131809 -0.140026
0.345865 0.162234 0.0821975
-0.242753 0.131307 -0.140026
0.300465 0.162234 0.0821975
-0.0128273 0.159614 0.0821975
0.295778 0.133126 -0.140026
-0.171268 0.159614 0.0821975
0.352518 0.156993 0.0821975
0.30111 0.133406 -0.142296
0.297197 0.156993 0.0821975
0.373092 0.133406 -0.141381
0.375758 0.133406 -0.142185
0.295778 0.1551 0.0821975
0.298444 0.134526 -0.140026
0.30111 0.135206 -0.140026
0.353671 0.154372 0.0821975
0.293112 0.151817 0.0821975
0.263786 0.154372 0.0802401
0.258454 0.153093 0.0821975
0.255788 0.152205 0.0821975
-0.172344 0.154372 0.0821975
0.266452 0.151751 0.0803696
0.263786 0.151751 0.0819712
0.253122 0.149875 0.0821975
0.355322 0.149131 0.0821975
0.279782 0.149131 0.0799756
0.266452 0.149131 0.08131
-0.173149 0.149131 0.0821975
0.356154 0.14651 0.0821975
0.375758 0.136027 -0.140316
0.277116 0.145297 0.0821975
0.422297 0.136027 -0.140026
0.303776 0.136272 -0.140026
0.269118 0.14651 0.0805795
0.250456 0.146251 0.0821975
0.24779 0.143955 0.0821975
-0.17398 0.14651 0.0821975
0.357294 0.143889 0.0821975
0.27445 0.143371 0.0821975
0.271784 0.143889 0.0811826
0.271784 0.142727 0.0821975
0.325104 0.138648 -0.141849
0.269118 0.143889 0.082103
0.229128 0.139949 0.0821975
0.226462 0.139501 0.0821975
-0.00442723 0.141268 0.0821975
-0.175304 0.141268 0.0821975
0.361117 0.138648 0.0821975
0.231794 0.138039 0.0821975
0.223796 0.138073 0.0821975
0.22113 0.136838 0.0821975
-0.00330445 0.138648 0.0821975
-0.176323 0.138648 0.0821975
0.363183 0.136027 0.0821975
0.218464 0.134101 0.0821975
-0.177389 0.136027 0.0821975
0.362428 0.137275 -0.140026
0.215798 0.132008 0.0821975
0.367759 0.136065 -0.140026
0.213132 0.131652 0.0821975
-0.00080101 0.133406 0.0821975
0.365106 0.130786 0.0821975
0.210466 0.130786 0.0818735
0.422008 0.138648 -0.140026
0.311774 0.13877 -0.140026
0.2078 0.130786 0.0813326
0.205134 0.130786 0.0804127
0.319772 0.140051 -0.140026
-0.179726 0.130786 0.0821975
0.367759 0.126879 0.0821975
0.32777 0.13998 -0.140026
0.366572 0.128165 0.0821975
0.333102 0.139958 -0.140026
0.210466 0.128165 0.0818016
0.338434 0.139816 -0.140026
0.3411 0.139395 -0.140026
0.2078 0.128165 0.0816769
0.346432 0.139028 -0.140026
0.202468 0.128165 0.0804269
0.199802 0.128165 0.0796317
-0.469363 0.127464 0.0821975
-0.47203 0.128165 0.0819836
-0.47736 0.127461 0.0821975
0.381089 0.125544 0.079696
0.378424 0.125544 0.0802339
0.421269 0.141268 -0.140026
0.381089 0.141409 -0.140026
0.383756 0.142592 -0.140026
0.386422 0.14203 -0.140026
0.375758 0.124199 0.0821975
0.371732 0.125544 0.0821975
0.391754 0.143889 -0.142483
0.210466 0.125544 0.0815731
0.40775 0.143889 -0.141757
0.410416 0.143889 -0.141817
0.205134 0.125544 0.0806315
0.00283964 0.125544 0.0821975
-0.182084 0.125544 0.0821975
0.419854 0.143889 -0.140026
-0.461367 0.123592 0.0821975
-0.464029 0.125544 0.0818966
0.383756 0.122924 0.0797475
0.381089 0.122924 0.0816845
0.40775 0.145915 -0.140026
0.215798 0.122924 0.0815274
0.213132 0.122924 0.0810907
0.413081 0.145517 -0.140026
0.415748 0.145934 -0.140026
0.418414 0.145202 -0.140026
0.00369875 0.122924 0.0821975
-0.49069 0.120601 0.0821975
0.383756 0.120303 0.0814271
0.399752 0.149131 -0.14198
0.402418 0.149131 -0.141115
0.405084 0.147824 -0.140026
0.22113 0.118169 0.0821975
0.397085 0.150102 -0.140026
0.399752 0.15116 -0.140026
0.210466 0.120303 0.0800817
-0.184808 0.120303 0.0821975
0.322438 -0.123423 -0.138709
-0.45803 0.120303 0.0821975
0.325104 -0.123754 -0.137381
0.325104 -0.123423 -0.137698
0.325469 -0.123423 -0.137381
0.218464 0.117682 0.0806581
0.215798 0.117682 0.0801154
-0.234755 -0.121433 -0.137381
-0.232089 -0.122665 -0.137381
0.213132 0.117682 0.0798953
-0.229423 -0.122834 -0.137381
0.00590886 0.117682 0.0821975
-0.186767 0.117682 0.0813517
-0.456033 0.117477 0.0821975
-0.493113 0.117682 0.0821975
-0.224091 -0.120802 -0.138982
0.385573 0.115062 0.0821975
0.221964 0.115062 0.0821975
0.22113 0.115062 0.081574
-0.218759 -0.120802 -0.138302
0.218464 0.115062 0.0805094
0.205134 0.112644 0.0821975
0.202468 0.112767 0.0821975
-0.213428 -0.120802 -0.137434
-0.493885 0.115062 0.0821975
0.319772 -0.12313 -0.137381
0.317518 -0.120802 -0.137381
0.325104 -0.120802 -0.139405
0.326609 -0.120802 -0.137381
0.389088 0.112441 0.0818682
0.218464 0.112441 0.0816197
-0.237421 -0.119031 -0.137381
0.218464 0.111837 0.0821975
0.215798 0.111559 0.0821975
0.213132 0.112441 0.0805795
0.213132 0.111303 0.0821975
0.210466 0.112441 0.0805991
0.2078 0.111635 0.0821975
0.2078 0.112441 0.0809314
0.315531 -0.118181 -0.137381
0.197136 0.111653 0.0821975
-0.453042 0.112441 0.0821975
-0.494213 0.112441 0.0821975
-0.240343 -0.115561 -0.137381
0.392616 0.10982 0.0821975
0.189138 0.107733 0.0821975
0.00902828 0.10982 0.0821975
-0.191708 0.10982 0.0821975
-0.494205 0.10982 0.0821975
-0.193895 0.107199 0.0821975
-0.202763 -0.115561 -0.138288
-0.200097 -0.115859 -0.137381
-0.494018 0.107199 0.0821975
0.185831 0.104579 0.0821975
0.0111528 0.104579 0.0821975
-0.494089 0.104579 0.0821975
0.402418 0.100605 0.0821975
0.18381 0.101958 0.0821975
0.18114 0.100479 0.0821975
0.328505 -0.115561 -0.137381
0.0123711 0.101958 0.0821975
-0.445369 0.101958 0.0816765
0.40775 0.0971176 0.0821975
-0.197432 -0.11294 -0.138574
0.173142 0.0989468 0.0821975
0.170476 0.0976665 0.0821975
-0.494107 0.0993373 0.0821975
0.410416 0.0956164 0.0821975
0.31242 -0.11294 -0.137381
0.169467 0.0967164 0.0821975
0.329005 -0.11294 -0.137381
0.0144657 0.0967164 0.0821975
-0.20407 0.0967164 0.0821975
-0.442192 0.0967164 0.0821975
-0.494165 0.0967164 0.0821975
0.346432 -0.11294 -0.137908
0.415748 0.0921644 0.0821975
0.16781 0.0940961 0.0817595
0.351678 -0.11294 -0.137381
0.42108 0.0891003 0.0821975
0.167087 0.0914753 0.0821975
0.357096 -0.113369 -0.137381
0.165144 0.0893506 0.0821975
-0.210761 0.0906588 0.0821975
0.423746 0.0888545 0.0806377
-0.213428 0.0880051 0.0821975
0.365094 -0.114009 -0.137381
-0.494098 0.0888545 0.0821975
0.425507 0.0862336 0.0821975
-0.242753 -0.112199 -0.137381
0.161854 0.0862336 0.0821975
0.429077 0.0834535 0.0821975
-0.217681 0.0836133 0.0821975
-0.435869 0.0836133 0.0821975
0.431797 0.0809925 0.0821975
0.434566 0.0783716 0.0821975
0.0238909 0.0783716 0.0821975
-0.224091 0.0783716 0.0802015
-0.288075 0.0783716 0.0798367
-0.290741 0.0783716 0.0801908
0.330436 -0.110319 -0.137541
-0.293407 0.0783716 0.0798908
0.437191 0.0757508 0.0821975
-0.224091 0.0757508 0.0815483
0.335767 -0.110319 -0.137767
-0.226757 0.0757508 0.0796978
-0.285409 0.0757508 0.0808307
0.338434 -0.110319 -0.138617
-0.293407 0.0750124 0.0821975
-0.296073 0.0757508 0.0808698
0.439834 0.07313 0.0821975
0.157146 0.0717832 0.0821975
-0.282743 0.07313 0.0808884
0.35443 -0.112538 -0.137381
-0.298739 0.07313 0.0811422
0.367759 -0.110319 -0.139438
-0.493881 0.07313 0.0821975
0.370426 -0.110723 -0.137381
0.442407 0.0702802 0.0821975
0.373092 -0.110994 -0.137381
0.15448 0.0700473 0.0821975
0.0282838 0.0705097 0.0821975
0.378424 -0.112516 -0.137381
0.0318443 0.0678888 0.0795957
0.381089 -0.112314 -0.137381
-0.229423 0.0678888 0.0806537
-0.28144 0.0678888 0.0821975
0.384309 -0.110319 -0.137381
-0.245663 -0.107698 -0.137381
-0.304071 0.0678888 0.0806723
0.44774 0.0634899 0.0821975
-0.189433 -0.107698 -0.139469
0.150991 0.065268 0.0821975
0.0312401 0.065268 0.0821975
-0.226757 0.065268 0.0821185
-0.232089 0.065268 0.0800075
-0.280077 0.0648886 0.0821975
-0.304071 0.0648922 0.0821975
0.330436 -0.107698 -0.139303
0.333102 -0.107698 -0.139179
0.333102 -0.110311 -0.137381
0.149875 0.0626472 0.0821975
-0.226757 0.0626472 0.0821828
-0.279209 0.0626472 0.0821975
0.386601 -0.107698 -0.137381
-0.247085 -0.105078 -0.137381
-0.186767 -0.105078 -0.139908
-0.424043 0.0626472 0.0820905
0.450406 0.0599359 0.0821975
-0.181436 -0.107456 -0.137381
0.0371762 0.0600269 0.0798988
-0.278603 0.0600269 0.0821975
-0.306737 0.0600269 0.0817386
-0.309403 0.0600269 0.0802543
-0.312069 0.0600269 0.0802356
-0.314735 0.0600269 0.0807451
0.452164 0.057406 0.0821975
0.147885 0.057406 0.0821975
0.146482 0.0549485 0.0821975
-0.178769 -0.102457 -0.138905
0.0371762 0.057406 0.0815403
-0.226757 0.057406 0.0819969
-0.232089 0.057406 0.079945
0.308759 -0.102457 -0.137381
-0.317401 0.0564258 0.0821975
-0.320067 0.057406 0.0814111
-0.420808 0.057406 0.0821975
-0.249656 -0.0998365 -0.137381
-0.176103 -0.0998365 -0.139491
-0.173437 -0.0998365 -0.138647
-0.232089 0.0547852 0.0800284
-0.277886 0.0547852 0.0821975
-0.322733 0.0547852 0.0815727
-0.416042 0.0547852 0.079957
0.309108 -0.0998365 -0.139833
0.307958 -0.0998365 -0.137381
0.389088 -0.0998365 -0.138587
-0.418709 0.0547852 0.0816299
0.390065 -0.0998365 -0.137381
0.455096 0.0521644 0.0821975
0.144783 0.0521644 0.0821975
0.394419 -0.100043 -0.137381
-0.226757 0.0521644 0.0816086
0.397085 -0.0998365 -0.137863
0.397562 -0.0998365 -0.137381
0.456339 0.049544 0.0821975
0.143483 0.049544 0.0821975
-0.416042 0.049544 0.0820985
0.457341 0.0469231 0.0821975
-0.170771 -0.0972157 -0.138733
-0.168106 -0.0972157 -0.13776
0.0478402 0.0469231 0.0811183
-0.229423 0.0469231 0.0806119
-0.277385 0.0469231 0.0821975
-0.49404 0.0469231 0.0821975
0.306442 -0.0975582 -0.137381
0.458336 0.0443024 0.0821975
0.391754 -0.0987581 -0.137381
0.394419 -0.0972157 -0.140023
0.141791 0.0443024 0.0821975
0.0505062 0.0443024 0.0813353
0.399957 -0.0972157 -0.137381
-0.226757 0.0443024 0.0813459
-0.327803 0.0443024 0.0821975
-0.16544 -0.0945953 -0.137946
-0.410711 0.0443024 0.0807899
-0.494023 0.0443024 0.0821975
0.458815 0.0416817 0.0821975
0.141186 0.0416817 0.0821975
0.0585042 0.0416817 0.0795727
0.306442 -0.0945953 -0.139393
0.0531722 0.0416817 0.0816845
-0.277141 0.0416817 0.0821975
