-0.138196 -0.029037 0.215654
0.188161 -0.0309676 0.21102
0.1921 -0.0305815 0.215654
0.182833 -0.031431 0.207159
-0.137964 -0.030736 0.200209
0.17233 -0.0318171 0.203298
0.17511 -0.0305815 0.205614
0.168538 -0.0309676 0.203298
0.168538 -0.0281103 0.204842
0.172793 -0.0281875 0.206387
-0.265619 -0.0313538 0.207931
-0.275272 -0.0305043 0.202525
-0.271102 -0.0301182 0.207159
0.163318 -0.0308132 0.201753
0.165302 -0.0280331 0.20407
0.379373 -0.0278786 0.197119
0.152135 -0.030736 0.197892
0.155649 -0.0280331 0.200209
0.160846 -0.0277241 0.202525
0.150575 -0.0280331 0.197892
0.146289 -0.0280331 0.195575
0.141895 -0.0282647 0.193258
0.378678 -0.0240173 0.196347
-0.283304 -0.0301954 0.193258
-0.279211 -0.0303498 0.198664
-0.134103 -0.0306587 0.195575
-0.289636 -0.0305043 0.182447
-0.288555 -0.029037 0.188625
-0.130705 -0.0308904 0.189397
0.133362 -0.0308904 0.184763
0.135856 -0.0278786 0.187852
-0.127925 -0.0280331 0.188625
-0.129933 -0.0277241 0.195575
0.341687 -0.0217777 0.187852
0.334891 -0.0257935 0.186308
0.351958 -0.0217777 0.190169
0.329794 -0.0255618 0.185536
-0.293189 -0.0306587 0.174724
-0.127153 -0.028342 0.180902
0.128242 -0.0301182 0.177813
0.131346 -0.0282647 0.183991
0.127678 -0.0281103 0.180902
0.317515 -0.027338 0.181674
0.321453 -0.0255618 0.183219
0.306008 -0.0280331 0.177813
0.312032 -0.0275697 0.18013
-0.128002 -0.027338 0.172407
-0.127307 -0.0281103 0.176268
0.132149 -0.0326666 0.167774
0.12801 -0.030736 0.170863
-0.299598 -0.0300409 0.164685
-0.297745 -0.0284964 0.172407
-0.294888 -0.0281875 0.179357
0.297591 -0.0279558 0.174724
-0.130319 -0.0277241 0.166229
0.132396 -0.0325894 0.157734
0.128643 -0.0308904 0.161595
-0.30624 -0.0291142 0.155417
-0.305313 -0.0288825 0.159279
0.128327 -0.0308904 0.153873
0.263302 -0.0278014 0.15619
0.278825 -0.027338 0.166229
0.27033 -0.0261796 0.161595
-0.307089 -0.0291914 0.14615
-0.13418 -0.0276469 0.152328
-0.132404 -0.0275697 0.159279
0.127523 -0.0325894 0.140744
0.252799 -0.0261024 0.150784
0.257356 -0.027338 0.152328
-0.137964 -0.0289598 0.143834
-0.135725 -0.0277241 0.146923
0.123067 -0.030736 0.1392
0.125276 -0.0304271 0.14615
0.247548 -0.0269519 0.146923
-0.305545 -0.0305043 0.1392
0.240598 -0.0274925 0.139972
0.24137 -0.0240945 0.143061
0.243764 -0.0250212 0.145378
-0.305545 -0.0308904 0.128388
-0.141903 -0.0281875 0.135339
-0.1392 -0.0255618 0.136111
0.239748 -0.028342 0.135339
-0.147772 -0.0296548 0.131477
-0.143911 -0.0275697 0.13225
0.120063 -0.0311221 0.13225
-0.151865 -0.029037 0.127616
0.240675 -0.028342 0.129933
0.117306 -0.0306587 0.128388
0.118581 -0.0277241 0.136111
0.116696 -0.0279558 0.131477
-0.309561 -0.0288053 0.119893
-0.163681 -0.0295003 0.119893
-0.159356 -0.0270291 0.119893
0.11265 -0.0305043 0.120666
0.115044 -0.0282647 0.128388
0.112874 -0.0278786 0.124527
-0.310487 -0.0287281 0.111399
0.244845 -0.0291142 0.116032
0.243918 -0.0278786 0.121438
-0.0110047 -0.0320488 0.109854
-0.00397714 -0.0296548 0.116032
-0.0201946 -0.0301954 0.112171
-0.0120859 -0.0292687 0.116032
0.0133987 -0.0323577 0.10522
0.0104641 -0.0306587 0.112171
0.00328211 -0.0300409 0.11526
0.246158 -0.0281103 0.111399
-0.0272222 -0.0305043 0.109082
-0.175264 -0.0270291 0.102131
0.100826 -0.0312765 0.103676
0.100919 -0.029037 0.106765
0.10539 -0.0299637 0.110626
0.10268 -0.0276469 0.109854
0.0968677 -0.0282647 0.102904
0.247162 -0.0277241 0.100587
0.24832 -0.0254074 0.10831
-0.176809 -0.0257935 0.0951811
-0.0364121 -0.0319716 0.0967256
-0.0317013 -0.0305043 0.106765
-0.0361804 -0.0305815 0.102904
0.0281643 -0.0306587 0.101359
0.0193451 -0.0302726 0.109854
0.0920079 -0.0281875 0.0982701
-0.313808 -0.0280331 0.0812804
-0.313345 -0.0275697 0.0982701
-0.314194 -0.0270291 0.0897753
0.0279249 -0.0318171 0.0944088
0.0882995 -0.0279558 0.0951811
-0.0430535 -0.0318944 0.0805081
-0.0531701 -0.0299637 0.0805081
-0.0457564 -0.0299637 0.0959534
-0.055873 -0.0288053 0.0897753
0.0275156 -0.0325122 0.0882308
0.0849865 -0.0284964 0.0913198
0.0781605 -0.0285736 0.0851417
-0.0444436 -0.0312765 0.0727855
-0.0501583 -0.0301182 0.0720133
0.0275851 -0.0328983 0.0812804
0.0331068 -0.0318944 0.085914
0.0349834 -0.0302726 0.0944088
0.0741524 -0.0304271 0.0704688
0.0757665 -0.0298093 0.0781914
0.248011 -0.0308904 0.0781914
0.0330605 -0.0323577 0.0781914
0.0346899 -0.0320488 0.071241
0.0392308 -0.0305043 0.085914
0.0379103 -0.0315082 0.0774191
0.0156383 -0.0330527 0.0642907
0.0247587 -0.0325894 0.0658352
0.251873 -0.0322033 0.0612016
0.252259 -0.0304271 0.0696965
-0.0348676 -0.0328983 0.0658352
-0.0300023 -0.0332072 0.0619739
-0.0384972 -0.0306587 0.0588849
-0.310256 -0.0305815 0.0658352
0.00675728 -0.0328983 0.0573403
0.0203027 -0.0318944 0.0581126
0.0147116 -0.0316627 0.053479
-0.305468 -0.0305043 0.0542513
-0.310487 -0.0277241 0.0573403
-0.193953 -0.0288053 0.0619739
-0.0246737 -0.0323577 0.0550236
-0.0307746 -0.0311993 0.0542513
0.0313152 -0.0320488 0.0650629
0.0296625 -0.031431 0.0581126
-0.00698896 -0.0328211 0.0565681
-0.0201946 -0.0315855 0.0511623
0.000115839 -0.03313 0.0573403
0.255966 -0.030736 0.0542513
0.25697 -0.029732 0.0612016
-0.0269905 -0.0304271 0.0488455
0.00258707 -0.0319716 0.0519345
-0.0118542 -0.030736 0.0480732
0.00922851 -0.0313538 0.0496177
0.0726388 -0.0304271 0.0527068
0.0717353 -0.0301954 0.0604294
-0.302842 -0.0284192 0.0442119
-0.307012 -0.0274152 0.0488455
0.0736119 -0.0305815 0.0434396
-0.294038 -0.0294231 0.035717
-0.298903 -0.0293459 0.0411229
0.0755502 -0.0308904 0.0303112
0.0700209 -0.0281875 0.0341725
0.0690787 -0.0289598 0.0496177
0.251641 -0.0302726 0.0380338
0.255657 -0.0301182 0.0449842
-0.207082 -0.029037 0.0395783
-0.286007 -0.0278014 0.0256777
-0.212719 -0.0305815 0.0334003
0.246621 -0.0301182 0.0318557
-0.275195 -0.0306587 0.0249054
-0.268322 -0.0315855 0.0241331
-0.268862 -0.0296548 0.0187273
-0.278438 -0.0271063 0.0187273
0.239903 -0.0304271 0.0249054
-0.220519 -0.0315082 0.0187273
-0.215499 -0.030736 0.0256777
0.0743764 -0.0295003 0.0233609
-0.258282 -0.0316627 0.0202718
-0.253649 -0.0300409 0.011777
-0.235346 -0.032126 0.0164105
-0.241138 -0.030736 0.00791567
-0.248629 -0.0302726 0.0102325
-0.230944 -0.0319716 0.014866
-0.225616 -0.0317399 0.0140938
0.0759441 -0.0284964 0.00714341
0.228859 -0.0312765 0.00868793
0.231794 -0.030736 0.0110047
0.0924998 -0.0298093 -0.00984632
0.0859897 -0.0275697 -0.00907406
0.082184 -0.0289598 -0.00212372
0.0846189 -0.0287281 -0.00598502
0.0994146 -0.0308132 -0.0121631
0.228937 -0.0288053 -0.00752954
0.114704 -0.0315855 -0.0183412
0.105159 -0.0291142 -0.0175689
0.12048 -0.0309676 -0.0222025
0.114511 -0.0287281 -0.0229747
0.118249 -0.0262569 -0.0276083
0.127029 -0.027338 -0.0291528
0.134906 -0.0305043 -0.0245193
0.144351 -0.0292687 -0.0291528
0.146158 -0.0275697 -0.0322419
0.14944 -0.0278014 -0.0345587
0.224689 -0.0279558 -0.026836
0.224689 -0.0257163 -0.0376477
0.156854 -0.0279558 -0.0399645
0.160924 -0.0277241 -0.0453703
0.166893 -0.0267202 -0.0554097
0.165341 -0.0262569 -0.0523206
0.163511 -0.027338 -0.0484593
0.220673 -0.0301182 -0.0538652
0.223608 -0.0262569 -0.0430535
0.223762 -0.0255618 -0.0507761
0.168345 -0.0281875 -0.059271
0.220442 -0.0295776 -0.0608155
0.170631 -0.028342 -0.0669936
0.220828 -0.0278014 -0.0669936
0.218511 -0.0279558 -0.0754885
0.174647 -0.0271836 -0.080122
0.173952 -0.027338 -0.0893891
0.217121 -0.0257163 -0.0893891
0.172793 -0.0277241 -0.118735
0.17287 -0.0271836 -0.109468
0.214032 -0.0279558 -0.112557
0.207468 -0.0281103 -0.130319
0.210093 -0.0279558 -0.125685
0.173952 -0.029037 -0.131863
0.17596 -0.0313538 -0.143447
0.176423 -0.0288053 -0.137269
0.203529 -0.0278786 -0.138814
0.176886 -0.0326666 -0.148081
0.18067 -0.0317399 -0.151942
0.180516 -0.0304271 -0.148081
0.196579 -0.0278786 -0.15117
0.183837 -0.0313538 -0.159665
0.184609 -0.0299637 -0.157348
0.191868 -0.0281875 -0.156576
0.194417 -0.0276469 -0.154259
0.187852 -0.0291914 -0.158893
0.205383 -0.0284964 -0.255425
0.202989 -0.0271836 -0.256197
0.208858 -0.0293459 -0.256197
0.2138 -0.0301954 -0.260059
0.213105 -0.0272608 -0.253881
0.217353 -0.0324349 -0.268554
0.216889 -0.030736 -0.260831
0.217353 -0.0318944 -0.26392
0.220982 -0.0327438 -0.273959
0.224535 -0.0326666 -0.271643
0.221291 -0.0322805 -0.267781
0.225616 -0.0318171 -0.267781
0.220442 -0.0305043 -0.260831
0.224766 -0.0302726 -0.263148
0.204997 -0.0275697 -0.274732
0.203066 -0.0253301 -0.271643
0.224457 -0.0329755 -0.275504
0.217353 -0.0322033 -0.275504
0.228087 -0.0328211 -0.273959
0.213955 -0.0315082 -0.279365
0.207777 -0.030736 -0.277821
0.207004 -0.0282647 -0.277821
0.232489 -0.0325122 -0.274732
0.232489 -0.0309676 -0.267781
0.236428 -0.0306587 -0.271643
0.209476 -0.0281103 -0.280137
0.213569 -0.0303498 -0.281682
0.217584 -0.0311993 -0.279365
0.240443 -0.0295776 -0.274732
0.235732 -0.0301182 -0.268554
0.238435 -0.0280331 -0.267781
0.217198 -0.0310449 -0.281682
0.21604 -0.0306587 -0.280137
0.220596 -0.031431 -0.282454
0.243455 -0.0299637 -0.278593
0.217275 -0.0275697 -0.283227
0.221368 -0.0288053 -0.283999
0.224998 -0.031431 -0.283999
0.226465 -0.030736 -0.286316
0.223994 -0.029037 -0.286316
0.224149 -0.0296548 -0.284771
0.250097 -0.0303498 -0.283227
0.248011 -0.0289598 -0.279365
0.252182 -0.0288825 -0.281682
0.224535 -0.0293459 -0.289405
0.25612 -0.029037 -0.284771
0.262607 -0.0287281 -0.289405
0.259132 -0.0291142 -0.287088
0.223608 -0.0288825 -0.292494
0.222372 -0.0278786 -0.297127
0.219901 -0.0278786 -0.3118
0.220365 -0.0278014 -0.307167
0.290022 -0.032126 -0.30485
0.29064 -0.0332072 -0.308711
0.297282 -0.0325894 -0.30485
0.296818 -0.0311221 -0.300216
0.285312 -0.0322033 -0.311028
0.290254 -0.0304271 -0.299444
0.285157 -0.0309676 -0.304078
0.297591 -0.0332844 -0.308711
0.30346 -0.0322033 -0.307167
0.303691 -0.0306587 -0.300216
0.269557 -0.0295003 -0.311028
0.268862 -0.0293459 -0.30485
0.294579 -0.0335933 -0.312572
0.28871 -0.0332844 -0.312572
0.301838 -0.0328983 -0.3118
0.308171 -0.0308132 -0.310256
0.307784 -0.0304271 -0.303305
0.290795 -0.0329755 -0.316434
0.285621 -0.0322805 -0.315661
0.298672 -0.0328211 -0.315661
0.303537 -0.0319716 -0.315661
0.287397 -0.0316627 -0.320295
0.280987 -0.0306587 -0.31875
0.297899 -0.0318944 -0.319523
0.304 -0.0308132 -0.319523
0.307939 -0.0303498 -0.316434
0.221755 -0.0278786 -0.32184
0.22021 -0.0282647 -0.316434
0.269712 -0.0292687 -0.31875
0.28871 -0.0294231 -0.325701
0.301992 -0.029732 -0.323384
0.29566 -0.0298865 -0.324156
0.22438 -0.0279558 -0.325701
0.265773 -0.0315855 -0.327245
0.26894 -0.0298865 -0.324156
0.226851 -0.0302726 -0.32879
0.277203 -0.0320488 -0.328018
0.276817 -0.0306587 -0.324156
0.280987 -0.0312765 -0.331107
0.28145 -0.0309676 -0.327245
0.280832 -0.0309676 -0.323384
0.229014 -0.0278014 -0.331879
0.22716 -0.0281875 -0.32879
0.261835 -0.0324349 -0.334968
0.265542 -0.0322033 -0.331879
0.269171 -0.0309676 -0.328018
0.272415 -0.0295776 -0.323384
0.284925 -0.0289598 -0.331107
0.284771 -0.029732 -0.328018
0.232489 -0.0281103 -0.339602
0.230713 -0.0281875 -0.33574
0.251487 -0.0310449 -0.338829
0.261294 -0.0327438 -0.338829
0.283999 -0.0299637 -0.33574
0.24276 -0.0304271 -0.337285
0.239903 -0.0289598 -0.338829
0.236505 -0.0291914 -0.339602
0.247548 -0.0281103 -0.338829
0.243455 -0.0278786 -0.339602
0.253108 -0.0308904 -0.343463
0.250483 -0.029037 -0.341918
0.249865 -0.0289598 -0.340374
0.259364 -0.0325894 -0.343463
0.282068 -0.0325122 -0.342691
0.284308 -0.0304271 -0.341146
0.262607 -0.0322033 -0.348869
0.256892 -0.0308904 -0.348869
0.281296 -0.0318944 -0.34578
0.280524 -0.029732 -0.348869
0.283999 -0.0301182 -0.345007
0.28369 -0.0275697 -0.348869
0.265156 -0.030736 -0.35273
0.260677 -0.0305815 -0.351958
0.269635 -0.0299637 -0.353502
0.276817 -0.0291142 -0.351958
0.220673 -0.0305815 -0.36972
0.212874 -0.0282647 -0.372809
0.217662 -0.0282647 -0.370492
0.224303 -0.0306587 -0.368947
0.232257 -0.0308132 -0.372036
0.228242 -0.0304271 -0.368947
0.232412 -0.0299637 -0.368175
0.205846 -0.0274925 -0.375898
0.209167 -0.0280331 -0.374353
0.234806 -0.029732 -0.375125
0.201753 -0.028342 -0.378987
0.204456 -0.0291142 -0.378215
0.199127 -0.0308132 -0.380531
0.231022 -0.0279558 -0.386709
0.195112 -0.0279558 -0.382848
0.198355 -0.0277241 -0.379759
0.191714 -0.0280331 -0.387482
0.189165 -0.0278786 -0.391343
0.18708 -0.0281103 -0.395204
0.185458 -0.0288825 -0.399066
0.184995 -0.028342 -0.404471
0.184995 -0.0282647 -0.409105
0.219824 -0.0278786 -0.408333
0.222295 -0.0278014 -0.405244
0.183142 -0.0311221 -0.414511
0.216194 -0.0277241 -0.411422
0.184145 -0.0313538 -0.419917
0.185304 -0.0288053 -0.414511
0.213337 -0.028342 -0.413739
0.188161 -0.0300409 -0.423778
0.188084 -0.0281875 -0.419144
0.205769 -0.027338 -0.418372
0.211715 -0.0234767 -0.413739
0.201444 -0.0278014 -0.419917
0.187852 -0.0323577 -0.427639
0.196193 -0.0261796 -0.420689
0.191791 -0.0288053 -0.423778
-0.186076 -0.0281875 0.470886
-0.195729 -0.0282647 0.460306
-0.197119 -0.0267202 0.450575
-0.182833 -0.0286509 0.432968
-0.179049 -0.0285736 0.433122
-0.169704 -0.029037 0.43513
-0.229477 -0.0299637 0.359989
-0.216194 -0.0300409 0.360761
-0.223376 -0.0295003 0.365163
-0.238822 -0.0291142 0.355124
-0.235115 -0.0295003 0.358445
-0.24276 -0.0296548 0.343231
-0.242374 -0.029037 0.348174
-0.211561 -0.0291914 0.36107
-0.208163 -0.0287281 0.349718
-0.208008 -0.0275697 0.358059
-0.242915 -0.0296548 0.338752
-0.245154 -0.0270291 0.347247
-0.248552 -0.0250985 0.342382
-0.207777 -0.0287281 0.34215
-0.242915 -0.0288825 0.334427
-0.238513 -0.0284192 0.326859
-0.235269 -0.0284964 0.32377
-0.212256 -0.0298093 0.326859
-0.207854 -0.0276469 0.325315
-0.207777 -0.0282647 0.333037
-0.216426 -0.0301954 0.32377
-0.223145 -0.0298865 0.322226
-0.211947 -0.028342 0.320681
-0.227392 -0.0291914 0.320681
-0.219592 -0.0291142 0.319909
-0.215654 -0.0287281 0.319137
0.358213 -0.0270291 0.274346
0.355665 -0.027338 0.276662
-0.170245 -0.0270291 0.278207
-0.175187 -0.0278014 0.277435
0.359603 -0.0240945 0.274346
0.363001 -0.026643 0.270484
-0.183837 -0.0294231 0.269712
-0.179357 -0.0270291 0.279751
-0.184145 -0.0274925 0.277435
-0.163449 -0.0264885 0.274346
-0.159433 -0.0277241 0.26894
-0.155417 -0.0274925 0.263534
-0.223145 -0.0280331 0.263534
-0.219515 -0.0269519 0.26894
-0.226774 -0.0275697 0.259673
-0.195729 -0.0284964 0.266623
-0.189629 -0.029037 0.266623
0.459765 -0.0244034 0.248089
0.456522 -0.0245579 0.245
-0.1392 -0.0269519 0.231871
-0.138505 -0.0219322 0.238049
0.236891 -0.0282647 0.241138
0.241602 -0.0288825 0.241138
0.245231 -0.0271063 0.243455
0.452815 -0.0271836 0.241911
-0.138891 -0.0281875 0.227238
-0.13696 -0.0275697 0.22106
0.192177 -0.0278786 0.21797
0.19542 -0.0277241 0.22106
-0.258205 -0.0292687 0.218743
-0.253803 -0.0278014 0.22801
0.188161 -0.0277241 0.214109
-0.263766 -0.0301182 0.213337
-0.267781 -0.0282647 0.214109
-0.26392 -0.0278786 0.218743
0.183219 -0.0281103 0.21102
0.177118 -0.0278786 0.207931
0.180825 -0.0293459 0.208703
-0.27172 -0.0277241 0.21102
-0.275504 -0.0279558 0.207159
-0.133408 -0.0289598 0.200209
-0.133871 -0.0277241 0.206387
-0.282995 -0.0278014 0.199436
-0.279288 -0.0279558 0.203298
-0.286856 -0.0267974 0.196347
-0.290022 -0.0268747 0.191714
0.13459 -0.0240945 0.18708
0.128435 -0.0243262 0.182447
0.124396 -0.0280331 0.173179
0.124952 -0.0274925 0.177041
0.12404 -0.0280331 0.167774
0.124944 -0.028342 0.160823
-0.302224 -0.0260252 0.172407
-0.308325 -0.0258707 0.166229
-0.135725 -0.0234767 0.140744
0.121855 -0.0275697 0.144606
0.12404 -0.0277241 0.153873
0.120295 -0.0274925 0.139972
-0.14615 -0.0251757 0.127616
-0.310256 -0.0282647 0.136883
0.107197 -0.0278786 0.116032
0.110518 -0.0276469 0.120666
-0.163526 -0.024944 0.114488
0.0137076 -0.0274152 0.119121
3.8613e-005 -0.0254846 0.124527
-0.0114681 -0.0241718 0.126072
-0.0201946 -0.0261796 0.120666
0.0173527 -0.0286509 0.11526
-0.0282261 -0.0278014 0.11526
-0.0335547 -0.028342 0.111399
0.0291992 -0.0285736 0.10831
0.0272453 -0.0264885 0.116804
-0.043208 -0.0287281 0.104448
0.0368214 -0.0282647 0.102131
-0.0537879 -0.0276469 0.0982701
-0.175882 -0.0224728 0.085914
-0.170476 -0.0230906 0.102131
-0.16816 -0.0179164 0.0944088
0.0461812 -0.0267202 0.0959534
0.251487 -0.0287281 0.0781914
0.251255 -0.0271063 0.0851417
0.0435787 -0.0298865 0.0797359
0.0488995 -0.0275697 0.0882308
-0.313113 -0.0282647 0.0704688
0.0382114 -0.0313538 0.0689242
0.049054 -0.0287281 0.0797359
-0.179435 -0.023245 0.0774191
-0.181829 -0.0237084 0.0696965
-0.043208 -0.0303498 0.0627462
-0.0497722 -0.0288053 0.0604294
-0.0449069 -0.0284964 0.0550236
0.0399722 -0.0305815 0.0619739
0.0443664 -0.0300409 0.0689242
0.0492934 -0.0291142 0.0658352
0.050112 -0.0289598 0.0735578
0.259286 -0.0274925 0.0642907
0.256892 -0.0271063 0.071241
0.0383196 -0.029732 0.053479
0.018403 -0.0302726 0.0473009
0.028481 -0.0301954 0.05039
0.0430535 -0.0296548 0.0588849
0.260908 -0.0277241 0.0565681
0.261758 -0.026643 0.0596571
-0.191791 -0.0269519 0.0588849
-0.194957 -0.0265658 0.0519345
-0.0224342 -0.0301954 0.0465287
0.00451772 -0.0301182 0.0442119
-0.0079929 -0.0288825 0.0411229
0.0103869 -0.0298865 0.0434396
0.260985 -0.0275697 0.0511623
-0.021353 -0.0280331 0.0403506
-0.0286122 -0.0280331 0.0418951
-3.8613e-005 -0.0280331 0.0380338
0.00706618 -0.0288825 0.0395783
0.0224264 -0.029732 0.0457564
0.0152753 -0.0288053 0.0403506
0.261912 -0.0262569 0.0449842
0.255657 -0.0284964 0.0372616
0.258669 -0.0275697 0.0403506
0.0683142 -0.0262569 0.0249054
-0.209398 -0.0291142 0.0279944
-0.202062 -0.0267202 0.0364893
-0.212874 -0.0302726 0.0187273
0.240675 -0.0274152 0.0133215
0.246158 -0.027338 0.0218164
-0.260368 -0.0287281 0.0102325
0.0690787 -0.0248668 0.0125492
0.235655 -0.0299637 0.0133215
-0.23496 -0.031431 0.00946019
-0.212951 -0.030736 0.011777
-0.219206 -0.031431 0.0102325
-0.20685 -0.0298093 0.011777
-0.203761 -0.0274925 0.0279944
-0.204533 -0.0285736 0.0187273
-0.229323 -0.031431 0.00637115
-0.235037 -0.0305815 0.00250985
-0.222527 -0.031431 0.00559889
-0.214032 -0.0308132 0.00405437
-0.20546 -0.0298093 0.00405437
0.236505 -0.0285736 0.0102325
-0.243069 -0.0291914 0.000965326
-0.227855 -0.0305043 0.000193065
-0.220596 -0.030736 0.000965326
0.232335 -0.0288053 0.00405437
0.229941 -0.0291914 -0.000579195
-0.214186 -0.0301954 -0.00135146
0.094866 -0.0267202 -0.0167967
0.0887821 -0.0254846 -0.0152521
0.229554 -0.0272608 -0.0144799
0.228937 -0.0258707 -0.0222025
0.223299 -0.0262569 -0.0561819
0.223994 -0.0241718 -0.0639045
0.173179 -0.0271836 -0.0723994
0.174183 -0.0272608 -0.077033
0.220828 -0.0240173 -0.0785775
0.173488 -0.0274925 -0.0955672
0.171403 -0.0288053 -0.10329
0.215268 -0.0271063 -0.107151
0.217121 -0.0244807 -0.102518
0.217893 -0.0239401 -0.094795
0.180207 -0.0288825 -0.143447
0.185149 -0.0284964 -0.153487
0.206927 -0.0268747 -0.253108
0.209707 -0.0271063 -0.253108
0.218974 -0.0284964 -0.256197
0.224226 -0.0282647 -0.25697
0.228628 -0.0304271 -0.264692
0.228859 -0.0284192 -0.259286
0.232643 -0.0294231 -0.26392
0.245386 -0.0268747 -0.272415
0.213491 -0.0274925 -0.282454
0.266314 -0.0287281 -0.294038
0.221523 -0.0274152 -0.300988
0.298903 -0.0291142 -0.295583
0.285003 -0.0300409 -0.300988
0.293961 -0.0271063 -0.291721
0.286702 -0.0278014 -0.29481
0.26809 -0.0289598 -0.300988
0.307553 -0.0301182 -0.300216
0.307784 -0.0295776 -0.297127
0.304464 -0.0288053 -0.294038
0.311414 -0.0293459 -0.298672
0.28091 -0.029732 -0.305622
0.313036 -0.0288053 -0.30485
0.280369 -0.0301954 -0.312572
0.313576 -0.0284192 -0.310256
0.276971 -0.029037 -0.314117
0.274654 -0.0289598 -0.319523
0.284539 -0.0305815 -0.324156
0.307475 -0.0296548 -0.320295
0.311182 -0.0288053 -0.317978
0.287088 -0.0270291 -0.33574
0.250405 -0.0288825 -0.345007
0.25195 -0.0289598 -0.348869
0.286856 -0.0279558 -0.341918
0.286238 -0.0274152 -0.34578
0.260908 -0.0284964 -0.356591
0.25558 -0.0286509 -0.35273
0.264924 -0.0281103 -0.358136
0.224844 -0.0278014 -0.367403
0.220982 -0.0278014 -0.368947
0.228628 -0.0291142 -0.366631
0.236428 -0.0295776 -0.368175
0.236428 -0.0284964 -0.365086
0.232721 -0.0274925 -0.364314
-0.104912 -0.0234767 0.484864
-0.081821 -0.0191521 0.484169
-0.0761063 -0.0190748 0.48386
-0.159742 -0.02255 0.482315
-0.155804 -0.0186887 0.482779
-0.146382 -0.024249 0.482624
-0.148158 -0.0168353 0.48247
-0.152328 -0.0165264 0.482624
-0.141826 -0.0189204 0.483087
-0.138196 -0.0191521 0.483165
-0.0692331 -0.0240945 0.479767
-0.171017 -0.0245579 0.47884
-0.166538 -0.0240173 0.480307
-0.174878 -0.0252529 0.476987
-0.0666075 -0.0241718 0.475519
-0.178662 -0.0255618 0.475905
-0.0668391 -0.0253301 0.471349
-0.190555 -0.0263341 0.473048
-0.186076 -0.0262569 0.475133
-0.182447 -0.026643 0.47467
-0.0666075 -0.0251757 0.46772
-0.194262 -0.0282647 0.464785
-0.194185 -0.0264885 0.470114
-0.197351 -0.0261024 0.466175
-0.0711638 -0.0265658 0.460692
-0.067148 -0.0251757 0.463781
-0.200749 -0.0240173 0.462468
-0.200749 -0.0241718 0.456831
-0.0751796 -0.0260252 0.454668
-0.0709321 -0.0254846 0.456908
-0.0781141 -0.0245579 0.452506
-0.0832883 -0.024249 0.45212
-0.0885397 -0.0243262 0.451579
-0.0915515 -0.0244034 0.450498
-0.193722 -0.0279558 0.444629
-0.190941 -0.0281103 0.43876
-0.19488 -0.026643 0.439686
-0.0971117 -0.0237856 0.446791
-0.0945633 -0.0237084 0.448799
-0.100741 -0.0237856 0.442776
-0.0992741 -0.024249 0.445015
-0.103599 -0.0237856 0.438914
-0.10244 -0.024944 0.441694
-0.186926 -0.0284964 0.434049
-0.107228 -0.0241718 0.434976
-0.175805 -0.0271836 0.43011
-0.169241 -0.0265658 0.431346
-0.159279 -0.0240173 0.431887
-0.163603 -0.024249 0.430728
-0.149162 -0.0239401 0.433354
-0.153487 -0.0229361 0.432582
-0.143138 -0.0240945 0.433431
-0.135184 -0.0245579 0.432813
-0.113793 -0.0268747 0.429724
-0.114565 -0.0245579 0.42957
-0.110858 -0.0237084 0.431732
-0.128157 -0.0243262 0.431655
-0.123137 -0.0237084 0.43011
-0.118812 -0.0239401 0.429029
-0.220751 -0.0280331 0.374817
-0.216272 -0.0291914 0.36887
-0.214804 -0.0282647 0.376438
-0.214032 -0.0269519 0.384933
-0.211792 -0.0285736 0.370029
-0.211097 -0.0279558 0.376516
-0.211252 -0.027338 0.38223
-0.228705 -0.0284964 0.367403
-0.219283 -0.0264113 0.383311
-0.226851 -0.026643 0.374817
-0.223299 -0.0264113 0.379296
-0.207468 -0.0267974 0.365549
-0.207468 -0.0268747 0.372963
-0.234883 -0.0275697 0.363928
-0.23774 -0.027338 0.36107
-0.233416 -0.026643 0.367789
-0.236273 -0.0247896 0.367248
-0.23913 -0.0243262 0.363696
-0.24276 -0.027338 0.352112
-0.240598 -0.026643 0.358059
-0.244227 -0.0240173 0.356051
-0.246467 -0.0236312 0.352421
-0.205228 -0.0268747 0.343849
-0.204919 -0.0259479 0.350954
-0.20461 -0.0262569 0.335122
-0.246235 -0.0270291 0.33798
-0.242528 -0.0275697 0.330721
-0.24639 -0.0259479 0.334427
-0.204765 -0.0257163 0.324542
-0.23859 -0.0253301 0.322226
-0.241911 -0.0257163 0.326859
-0.230558 -0.0274925 0.319137
-0.234111 -0.0258707 0.319137
-0.237277 -0.0238628 0.319909
-0.225539 -0.0271063 0.316048
-0.230636 -0.0239401 0.312959
-0.217353 -0.0268747 0.313731
0.483087 -0.0241718 0.311414
0.486563 -0.0233995 0.311414
0.489034 -0.0246351 0.310642
0.479458 -0.0239401 0.308325
0.480616 -0.0250212 0.310642
0.491814 -0.0261024 0.307553
0.490656 -0.0238628 0.30678
0.477604 -0.0217005 0.304464
0.492432 -0.0251757 0.304464
0.473743 -0.0239401 0.301375
0.465712 -0.0227817 0.297513
0.49444 -0.0237856 0.295969
0.49305 -0.0237856 0.300602
0.46046 -0.0243262 0.295197
0.496061 -0.0233995 0.290563
0.459379 -0.0197699 0.294424
0.444397 -0.0239401 0.294424
0.43791 -0.0237084 0.292107
0.441231 -0.0234767 0.293652
0.448567 -0.0241718 0.293652
0.452969 -0.0192293 0.293652
0.423392 -0.0239401 0.289018
0.417909 -0.0233223 0.289018
0.42872 -0.0219322 0.289791
0.396208 -0.0238628 0.288246
0.400533 -0.0222411 0.289791
0.497065 -0.0238628 0.284385
0.392192 -0.0245579 0.285929
0.388177 -0.0239401 0.282068
0.496525 -0.0240945 0.278979
0.337362 -0.0244807 0.278207
0.344544 -0.0240173 0.279751
0.34076 -0.0247123 0.279751
0.34771 -0.0262569 0.279751
0.384702 -0.0238628 0.278979
0.332883 -0.0243262 0.274346
0.33435 -0.0247123 0.276662
0.355896 -0.0241718 0.277435
0.349178 -0.0237084 0.278979
0.352421 -0.0241718 0.278979
0.380917 -0.0237084 0.27589
0.328713 -0.0246351 0.272029
-0.175342 -0.0257163 0.28284
-0.167001 -0.0243262 0.281296
-0.172716 -0.023245 0.286702
-0.193181 -0.0271836 0.272801
0.322689 -0.0254074 0.26894
0.324929 -0.024944 0.270484
0.371728 -0.0222411 0.271256
0.494671 -0.0267202 0.269712
0.493204 -0.024249 0.270484
0.49444 -0.0216233 0.276662
-0.157889 -0.0237084 0.272801
0.321608 -0.0237084 0.266623
0.314658 -0.0244807 0.264306
0.317669 -0.0245579 0.265851
0.367171 -0.0267202 0.26894
0.367943 -0.0240945 0.270484
0.491582 -0.0258707 0.267395
-0.209012 -0.0265658 0.271256
-0.208781 -0.0250212 0.274346
-0.21797 -0.0248668 0.273573
-0.204224 -0.0267202 0.270484
-0.199436 -0.0270291 0.270484
-0.227624 -0.0247896 0.264306
-0.223299 -0.0253301 0.26894
0.311414 -0.0240945 0.261989
0.485173 -0.0233995 0.265851
0.489343 -0.0240945 0.267395
-0.230713 -0.0250985 0.258128
0.304618 -0.0240945 0.258128
0.308866 -0.0251757 0.261217
0.30763 -0.0244034 0.260445
0.300371 -0.0268747 0.258128
0.30068 -0.0247123 0.258128
0.479381 -0.0237856 0.261989
0.48301 -0.024249 0.263534
-0.148313 -0.0233995 0.257356
-0.152097 -0.0234767 0.264306
0.29288 -0.024249 0.255811
0.297591 -0.0247896 0.257356
0.2962 -0.0235539 0.256584
0.475519 -0.0240945 0.259673
0.289018 -0.0241718 0.254267
0.46826 -0.0250985 0.255811
0.471735 -0.024249 0.258128
0.284076 -0.0240173 0.25195
0.277821 -0.0240173 0.250405
0.464322 -0.0261796 0.251178
0.464862 -0.0237856 0.254267
0.273419 -0.0241718 0.248861
0.461619 -0.0237084 0.251178
0.265773 -0.0246351 0.247316
0.269557 -0.0236312 0.248089
-0.235269 -0.0258707 0.248861
0.255502 -0.0238628 0.246544
0.248089 -0.0240945 0.244227
0.251641 -0.0240945 0.245
0.259827 -0.0240945 0.246544
0.240212 -0.0267202 0.242683
0.237431 -0.0239401 0.241911
0.449494 -0.0239401 0.242683
0.453047 -0.0243262 0.244227
0.228473 -0.0264885 0.238822
0.232643 -0.0241718 0.240366
0.444552 -0.0243262 0.241138
-0.241988 -0.0270291 0.238822
0.224612 -0.0237856 0.238049
0.226079 -0.0251757 0.238822
0.436134 -0.024249 0.238049
0.439069 -0.0237084 0.238822
0.215576 -0.0233995 0.23496
0.220751 -0.0235539 0.237277
0.212565 -0.024249 0.233416
0.431501 -0.0237856 0.23496
0.433817 -0.0236312 0.236505
0.428952 -0.024249 0.232643
0.207236 -0.0267974 0.231099
0.207082 -0.0240173 0.231099
0.202525 -0.0267974 0.22801
0.203298 -0.0239401 0.228782
0.424936 -0.0233995 0.229554
-0.247625 -0.0268747 0.23496
-0.135493 -0.0240945 0.227238
0.200286 -0.0240173 0.226465
0.195961 -0.0240173 0.222604
0.422542 -0.0195382 0.226465
0.416519 -0.020156 0.224149
0.191714 -0.0241718 0.218743
0.405707 -0.0241718 0.217198
0.407483 -0.0203104 0.218743
0.412194 -0.0200788 0.221832
-0.260059 -0.0274925 0.222604
-0.262993 -0.0268747 0.22106
-0.257356 -0.026643 0.228782
-0.259518 -0.0263341 0.226465
-0.261526 -0.0243262 0.226465
-0.264383 -0.0243262 0.222604
-0.266777 -0.0269519 0.217198
-0.267627 -0.0243262 0.21797
0.188316 -0.024249 0.216426
-0.270253 -0.0268747 0.214109
-0.270716 -0.0240945 0.214881
-0.134566 -0.0270291 0.213337
0.401305 -0.0243262 0.214109
0.185072 -0.0239401 0.214109
0.177504 -0.0243262 0.209476
0.181056 -0.0237856 0.211792
-0.274191 -0.0261796 0.210248
-0.272878 -0.0241718 0.211792
-0.277975 -0.0267974 0.205614
-0.276122 -0.0240173 0.208703
-0.278747 -0.0240945 0.206387
-0.131168 -0.0268747 0.201753
-0.131477 -0.0240945 0.212565
-0.130242 -0.0239401 0.207159
0.17233 -0.024249 0.207931
-0.281914 -0.0268747 0.202525
-0.282609 -0.024249 0.203298
0.165032 -0.0238628 0.204842
0.384624 -0.0240945 0.200209
0.395668 -0.0235539 0.209476
0.157827 -0.0240945 0.201753
0.161333 -0.0235539 0.202525
-0.28647 -0.0239401 0.199436
-0.285543 -0.0264885 0.197892
0.150784 -0.0244807 0.198664
0.144196 -0.0239401 0.194803
0.140011 -0.024249 0.191714
-0.126921 -0.0243262 0.191714
-0.129469 -0.0247896 0.201753
-0.127539 -0.0234767 0.197119
0.364777 -0.0223183 0.192486
0.376824 -0.0196154 0.196347
0.371264 -0.0189204 0.19403
0.359062 -0.0220866 0.190941
-0.294347 -0.0260252 0.18708
-0.125763 -0.0234767 0.186308
0.337285 -0.0187659 0.18708
0.325469 -0.0198471 0.184763
0.332883 -0.0181481 0.186308
0.125732 -0.0269519 0.179357
0.125732 -0.0250985 0.18013
0.316974 -0.0228589 0.182447
0.316356 -0.0197699 0.183219
-0.298826 -0.0259479 0.177813
-0.125608 -0.0240173 0.177041
0.312727 -0.0220866 0.181674
0.30763 -0.0244807 0.179357
0.12421 -0.0241718 0.176268
0.302842 -0.0244034 0.177041
0.122759 -0.0245579 0.168546
-0.127616 -0.0237856 0.167774
0.122789 -0.0254846 0.162368
0.290254 -0.024249 0.172407
0.295274 -0.0217777 0.175496
-0.130087 -0.0240945 0.160051
0.282454 -0.0238628 0.169318
0.275427 -0.0236312 0.165457
0.122928 -0.0257163 0.158506
-0.313113 -0.0260252 0.159279
-0.314735 -0.0261024 0.150784
-0.315584 -0.0255618 0.155417
0.120712 -0.0241718 0.148467
0.122295 -0.0240173 0.157734
0.121724 -0.0238628 0.154645
0.260754 -0.0244034 0.15619
-0.313808 -0.0263341 0.143834
-0.132558 -0.023245 0.149239
-0.131323 -0.0237084 0.153873
0.256043 -0.0243262 0.153101
-0.313113 -0.0264113 0.128388
-0.313499 -0.0262569 0.136883
0.119623 -0.0238628 0.143061
0.117994 -0.0239401 0.1392
0.239825 -0.0240173 0.136111
0.239594 -0.02255 0.139972
-0.141594 -0.0247896 0.131477
0.116125 -0.0243262 0.133794
0.241138 -0.0221639 0.13225
0.113623 -0.0241718 0.129161
-0.312881 -0.0267974 0.116032
-0.314812 -0.025639 0.120666
-0.148622 -0.0237084 0.123755
-0.141748 -0.0210055 0.128388
-0.144992 -0.0206194 0.124527
-0.155804 -0.0278014 0.122982
-0.153718 -0.0241718 0.120666
0.110194 -0.0234767 0.122982
0.106456 -0.0237084 0.118349
0.246312 -0.0267974 0.11526
0.24639 -0.0239401 0.119121
0.243223 -0.0237856 0.126072
0.103383 -0.0239401 0.113715
-0.03842 -0.0247123 0.116804
-0.0293845 -0.0238628 0.12221
0.248089 -0.0240945 0.113715
-0.0430535 -0.026643 0.110626
0.100533 -0.0240173 0.110626
-0.313422 -0.0271063 0.103676
-0.315198 -0.0254074 0.10831
0.0968445 -0.0245579 0.106765
-0.0489227 -0.0268747 0.105993
0.0356244 -0.026643 0.109082
0.0915407 -0.0240945 0.102904
-0.316665 -0.0244034 0.0967256
0.251255 -0.0243262 0.0936366
0.250405 -0.0234767 0.102131
0.0432929 -0.0248668 0.107537
-0.316897 -0.024249 0.0851417
-0.0619739 -0.0280331 0.0812804
-0.0645996 -0.0254846 0.0944088
-0.0668391 -0.0261024 0.0866862
0.079566 -0.026643 0.0913198
0.0836435 -0.0253301 0.0951811
-0.316511 -0.0245579 0.0735578
0.0596494 -0.0265658 0.0843694
0.0565835 -0.0248668 0.0944088
0.0721446 -0.0281103 0.0812804
0.0735578 -0.026643 0.0874585
0.25558 -0.0254846 0.0781914
0.25419 -0.0237084 0.085914
-0.0570314 -0.0288053 0.0689242
-0.064754 -0.027338 0.0727855
0.058491 -0.0275697 0.0789636
0.0698818 -0.0288053 0.0743301
0.0687698 -0.029037 0.0673797
0.0647386 -0.028342 0.0696965
0.0658275 -0.027338 0.0805081
0.0552398 -0.0284192 0.0720133
0.259518 -0.0239401 0.0727855
0.25697 -0.021855 0.0820527
0.25975 -0.020851 0.0774191
-0.187698 -0.0250985 0.0588849
-0.0547919 -0.0284964 0.0627462
0.0487914 -0.0285736 0.0573403
0.0578037 -0.028342 0.0650629
0.0596726 -0.0281103 0.0720133
0.0657657 -0.0284964 0.0573403
-0.315275 -0.0250212 0.0642907
-0.0533246 -0.0268747 0.0527068
-0.0608927 -0.0267202 0.0581126
0.0649625 -0.0276469 0.0480732
0.060746 -0.0280331 0.0588849
0.0604371 -0.0271063 0.0488455
-0.0437486 -0.026643 0.0473009
-0.0336319 -0.0288053 0.0473009
0.049834 -0.0276469 0.05039
0.0358483 -0.0281875 0.0442119
0.0552707 -0.0278786 0.0557958
0.0640513 -0.0263341 0.0388061
0.264924 -0.024249 0.0557958
0.0444899 -0.0267202 0.0418951
0.053842 -0.0262569 0.0442119
0.265156 -0.0240173 0.0480732
0.0245579 -0.0284192 0.0403506
-0.300448 -0.0267202 0.0364893
-0.307553 -0.0243262 0.0418951
-0.197428 -0.0261796 0.0449842
-0.0202718 -0.0254074 0.032628
-0.0068345 -0.0253301 0.0303112
0.00722063 -0.027338 0.0349448
0.0137076 -0.0261024 0.0303112
0.0391922 -0.0263341 0.0364893
0.0332921 -0.0259479 0.032628
0.258205 -0.0267974 0.035717
0.261526 -0.0244807 0.0349448
-0.294888 -0.0265658 0.0303112
0.255116 -0.0268747 0.0310835
0.25612 -0.0246351 0.0256777
0.246467 -0.0254846 0.0164105
-0.27365 -0.024944 0.0102325
-0.280755 -0.0227045 0.0110047
-0.266777 -0.0281103 0.0133215
-0.263766 -0.0270291 0.00791567
-0.26755 -0.0257163 0.00714341
-0.197583 -0.0278786 0.011777
-0.198278 -0.0265658 0.0225886
-0.256892 -0.0269519 0.00328211
-0.261603 -0.0254846 0.00250985
-0.251409 -0.0277241 0.00173759
0.237895 -0.0267202 0.00482663
0.0762607 -0.026643 0.000193065
-0.235269 -0.0286509 -0.00521276
-0.205692 -0.0291142 -0.00289598
-0.200209 -0.028342 -0.00135146
-0.194957 -0.0274152 0.00482663
0.233416 -0.0271836 -0.00135146
-0.223608 -0.0298093 -0.00366824
-0.226234 -0.0286509 -0.00752954
-0.21882 -0.0286509 -0.0083018
-0.210325 -0.0281875 -0.0083018
-0.201521 -0.0270291 -0.0083018
-0.194262 -0.0263341 -0.00289598
0.0783149 -0.024249 -0.00752954
-0.231331 -0.0265658 -0.0121631
-0.244536 -0.0271063 -0.0044405
-0.240752 -0.0258707 -0.00984632
-0.222372 -0.0267974 -0.0129354
-0.213569 -0.026643 -0.0129354
0.233647 -0.0261024 -0.00675728
0.100548 -0.024249 -0.0229747
0.093625 -0.0217005 -0.0229747
0.234806 -0.024249 -0.0144799
0.110155 -0.0250985 -0.0260638
0.135995 -0.0267202 -0.0306974
0.13245 -0.0264113 -0.0314696
0.141161 -0.0248668 -0.0345587
0.228628 -0.0240173 -0.0299251
0.226156 -0.0254846 -0.0314696
0.146305 -0.0240173 -0.0368754
0.150444 -0.0239401 -0.0391922
0.227315 -0.020156 -0.0484593
0.228396 -0.0202332 -0.0430535
0.164484 -0.0214688 -0.0523206
0.161101 -0.0237084 -0.0476871
0.168237 -0.0204649 -0.0577265
0.226311 -0.0211599 -0.0546374
0.170013 -0.0234767 -0.0608155
0.172562 -0.0237084 -0.0669936
0.222759 -0.0241718 -0.0716272
0.175728 -0.0240945 -0.0762607
0.174492 -0.0238628 -0.0723994
0.177195 -0.0240173 -0.0955672
0.177118 -0.0238628 -0.102518
0.21658 -0.0241718 -0.11024
0.179744 -0.0227817 -0.121052
0.176577 -0.0244807 -0.113329
0.215268 -0.0240945 -0.116418
0.211329 -0.0245579 -0.126458
0.213878 -0.0240945 -0.121052
0.175187 -0.0269519 -0.12723
0.177041 -0.0254846 -0.125685
0.178122 -0.0263341 -0.132636
0.204224 -0.0237856 -0.138814
0.207622 -0.0238628 -0.132636
0.180593 -0.0270291 -0.139586
0.201599 -0.0240945 -0.143447
0.184763 -0.0267202 -0.145764
0.198587 -0.024249 -0.147309
0.188007 -0.0274152 -0.155804
0.188084 -0.0257163 -0.151942
0.194648 -0.0253301 -0.151942
0.195807 -0.0236312 -0.149625
0.191945 -0.0254846 -0.154259
0.189551 -0.0261796 -0.155031
0.205228 -0.0241718 -0.253108
0.202757 -0.0236312 -0.256197
0.216735 -0.0244034 -0.250019
0.209398 -0.0245579 -0.251564
0.221986 -0.0261796 -0.251564
0.229014 -0.026643 -0.252336
0.234034 -0.0272608 -0.260059
0.23303 -0.0267974 -0.256197
0.236891 -0.0272608 -0.26392
0.238822 -0.0250212 -0.256197
0.240134 -0.0248668 -0.260059
0.261603 -0.0293459 -0.262375
0.264769 -0.0300409 -0.264692
0.266546 -0.0288053 -0.260059
0.264847 -0.0272608 -0.256197
0.272029 -0.0289598 -0.265465
0.272801 -0.0272608 -0.259286
0.269017 -0.0267202 -0.256197
0.26253 -0.0301954 -0.264692
0.261758 -0.0299637 -0.267009
0.258514 -0.0278786 -0.26392
0.261294 -0.0267202 -0.25697
0.258437 -0.0264885 -0.260831
0.266005 -0.0300409 -0.268554
0.201521 -0.0235539 -0.267781
0.258051 -0.0278014 -0.267781
0.260985 -0.029037 -0.27087
0.25558 -0.0267974 -0.271643
0.254885 -0.024944 -0.264692
0.269249 -0.0293459 -0.272415
0.265001 -0.0295003 -0.272415
0.273573 -0.0284964 -0.271643
0.276894 -0.0271836 -0.265465
0.260522 -0.0281875 -0.275504
0.255657 -0.0272608 -0.275504
0.265078 -0.0281875 -0.278593
0.271488 -0.0278014 -0.278593
0.27728 -0.0271836 -0.273187
0.207854 -0.0245579 -0.279365
0.251332 -0.0267974 -0.274732
0.21102 -0.0238628 -0.282454
0.214804 -0.0254846 -0.283999
0.25612 -0.0277241 -0.279365
0.220519 -0.0267974 -0.286316
0.217198 -0.0250985 -0.286316
0.2589 -0.0282647 -0.283999
0.259981 -0.0278014 -0.280137
0.262762 -0.0278786 -0.286316
0.263071 -0.0277241 -0.283227
0.221523 -0.0264113 -0.289405
0.221446 -0.0260252 -0.292494
0.269944 -0.026643 -0.288632
0.26894 -0.0268747 -0.286316
0.320063 -0.0282647 -0.289405
0.312418 -0.0284964 -0.290949
0.316588 -0.0288825 -0.293266
0.316897 -0.0271063 -0.285543
0.31041 -0.0264885 -0.285543
0.324002 -0.0284192 -0.293266
0.317283 -0.0288825 -0.296355
0.328018 -0.0272608 -0.288632
0.321376 -0.0264113 -0.283227
0.325083 -0.0265658 -0.284771
0.324465 -0.0280331 -0.296355
0.330798 -0.0267202 -0.292494
0.300911 -0.0260252 -0.28786
0.220056 -0.0247896 -0.297899
0.273033 -0.0274152 -0.297127
0.272801 -0.0265658 -0.293266
0.317515 -0.0282647 -0.300216
0.324697 -0.0267202 -0.300216
0.329562 -0.0261796 -0.296355
0.278593 -0.0281103 -0.300216
0.282918 -0.0267202 -0.292494
0.295505 -0.0250985 -0.286316
0.290717 -0.0250985 -0.286316
0.219747 -0.024249 -0.304078
0.273033 -0.0286509 -0.30485
0.276971 -0.0287281 -0.306394
0.276971 -0.0264113 -0.293266
0.319754 -0.0270291 -0.304078
0.219747 -0.0240173 -0.307939
0.273342 -0.0286509 -0.314117
0.219669 -0.0251757 -0.315661
0.219592 -0.0240945 -0.312572
0.315044 -0.0275697 -0.314117
0.320681 -0.0261024 -0.309483
0.220133 -0.0252529 -0.319523
0.220828 -0.0240945 -0.324156
0.307553 -0.0287281 -0.325701
0.3118 -0.0282647 -0.325701
0.31682 -0.0270291 -0.317206
0.224689 -0.0245579 -0.328018
0.295274 -0.0276469 -0.328018
0.303151 -0.0282647 -0.328018
0.28925 -0.0264885 -0.331879
0.300371 -0.0259479 -0.332651
0.291876 -0.0255618 -0.333423
0.295814 -0.0253301 -0.333423
0.304309 -0.0271063 -0.331879
0.307939 -0.0275697 -0.334196
0.22801 -0.0248668 -0.334968
0.227315 -0.024944 -0.331879
0.3118 -0.0282647 -0.336512
0.315121 -0.0282647 -0.337285
0.316511 -0.0279558 -0.330334
0.310487 -0.0271063 -0.341146
0.3118 -0.0281875 -0.331879
0.307939 -0.0267974 -0.338829
0.236736 -0.028342 -0.344235
0.244073 -0.0271836 -0.342691
0.247625 -0.0272608 -0.342691
0.32323 -0.0267202 -0.331879
0.321222 -0.026643 -0.336512
0.317978 -0.0274925 -0.341146
0.314658 -0.0271063 -0.343463
0.24778 -0.0275697 -0.345007
0.289636 -0.0251757 -0.342691
0.289636 -0.0252529 -0.338829
0.248089 -0.0271836 -0.349641
0.287088 -0.0240945 -0.348869
0.289173 -0.0241718 -0.34578
0.251332 -0.027338 -0.35273
0.280678 -0.0271063 -0.35273
0.284771 -0.0244807 -0.35273
0.252027 -0.0264885 -0.357364
0.256043 -0.0267202 -0.358908
0.275813 -0.0270291 -0.356591
0.269712 -0.0270291 -0.35968
0.240057 -0.028342 -0.365086
0.240134 -0.0261796 -0.360453
0.24137 -0.0287281 -0.368947
0.244073 -0.0271063 -0.364314
0.247857 -0.0263341 -0.368175
0.244459 -0.0255618 -0.360453
0.248552 -0.0259479 -0.364314
0.248011 -0.0254846 -0.360453
0.226929 -0.0267974 -0.365858
0.224535 -0.0240173 -0.365086
0.221368 -0.0237084 -0.366631
0.22855 -0.0240945 -0.363542
0.237895 -0.0285736 -0.375125
0.244691 -0.0269519 -0.372809
0.217507 -0.0240945 -0.368947
0.214804 -0.0248668 -0.370492
0.209553 -0.0238628 -0.371264
0.239825 -0.0265658 -0.378987
0.202216 -0.0244034 -0.375898
0.205305 -0.0237084 -0.372809
0.228782 -0.026643 -0.398293
0.237354 -0.0255618 -0.386709
0.234497 -0.0247123 -0.396749
0.196733 -0.0267202 -0.380531
0.198896 -0.0236312 -0.378215
0.196502 -0.0241718 -0.379759
0.193026 -0.0261796 -0.385165
0.194417 -0.0234767 -0.382848
0.19125 -0.0231678 -0.390571
0.192254 -0.0240173 -0.386709
0.189165 -0.0250985 -0.39366
0.18793 -0.0255618 -0.397521
0.187389 -0.0259479 -0.401382
0.225307 -0.0271836 -0.402155
0.224071 -0.0268747 -0.404471
0.2294 -0.0252529 -0.401382
0.224689 -0.024249 -0.405244
0.228705 -0.0235539 -0.403699
0.221214 -0.0244034 -0.40756
0.217353 -0.0238628 -0.409877
0.187775 -0.0261796 -0.412966
0.201907 -0.0239401 -0.4176
0.204919 -0.0217777 -0.415283
0.198432 -0.0241718 -0.418372
0.191714 -0.0269519 -0.420689
-0.162754 -0.0236312 0.48162
-0.182755 -0.0240945 0.479072
-0.186771 -0.0237084 0.479381
-0.0666847 -0.0243262 0.458684
-0.0706232 -0.0240173 0.454205
-0.0743301 -0.023245 0.451811
-0.195112 -0.0261024 0.433431
-0.199359 -0.0237084 0.442235
-0.199282 -0.0233995 0.435593
-0.194262 -0.0264113 0.428643
-0.18847 -0.0271063 0.425322
-0.191405 -0.0269519 0.427253
-0.183759 -0.0268747 0.425477
-0.19349 -0.0264885 0.420998
-0.190169 -0.0265658 0.419917
-0.185149 -0.0253301 0.418449
-0.180053 -0.0255618 0.423855
-0.194417 -0.0262569 0.415746
-0.192254 -0.0259479 0.414125
-0.206695 -0.0265658 0.393119
-0.207004 -0.026643 0.387327
-0.211638 -0.0261796 0.391652
-0.202062 -0.0260252 0.393969
-0.208008 -0.0260252 0.396826
-0.204224 -0.0264113 0.397753
-0.215422 -0.025639 0.39003
-0.20685 -0.026643 0.381458
-0.203915 -0.0257935 0.384933
-0.202448 -0.0247123 0.37945
-0.230944 -0.0262569 0.371341
-0.202062 -0.0237084 0.372191
-0.234729 -0.0237856 0.371033
-0.20322 -0.0237856 0.358136
-0.201753 -0.0227817 0.365086
-0.242297 -0.0236312 0.359912
-0.201753 -0.0237856 0.33991
-0.201135 -0.0222411 0.353502
-0.247857 -0.0235539 0.349641
-0.246004 -0.0240945 0.330721
-0.207622 -0.026643 0.319137
-0.202139 -0.0237856 0.319137
-0.201212 -0.0233223 0.331493
-0.200595 -0.0227045 0.326087
-0.211638 -0.0264885 0.312959
-0.207313 -0.0261024 0.315275
-0.204379 -0.0247123 0.314503
-0.207777 -0.0255618 0.311414
0.415592 -0.0185342 0.289018
-0.182678 -0.0264113 0.282068
-0.181211 -0.0253301 0.285157
-0.186153 -0.0258707 0.283613
-0.190478 -0.0257163 0.28284
-0.162368 -0.0236312 0.278207
-0.202294 -0.0255618 0.274346
0.363773 -0.0238628 0.271256
0.469032 -0.0231678 0.258128
0.467797 -0.0205421 0.2589
0.460615 -0.0205421 0.252722
0.456599 -0.0203877 0.248089
0.45853 -0.0203104 0.250405
-0.238976 -0.0253301 0.247316
0.241602 -0.0240173 0.243455
0.228705 -0.0233223 0.238822
-0.253417 -0.024249 0.239594
-0.249015 -0.0247123 0.241138
-0.256661 -0.0253301 0.233416
-0.259441 -0.0241718 0.230327
-0.133717 -0.0244034 0.220287
-0.274268 -0.0233995 0.210248
-0.290177 -0.0237856 0.195575
-0.293034 -0.024249 0.192486
0.128025 -0.0209283 0.18013
0.132419 -0.0206966 0.183991
0.122164 -0.0230134 0.162368
0.12404 -0.0209283 0.172407
0.122805 -0.0207738 0.16314
0.122241 -0.0228589 0.160051
-0.316974 -0.0235539 0.129933
-0.31597 -0.0247896 0.139972
-0.321994 -0.0200015 0.133794
-0.318133 -0.0230906 0.124527
0.00783844 -0.0240945 0.126844
0.00328211 -0.0215461 0.131477
-0.00668005 -0.0215461 0.131477
0.0147116 -0.0220866 0.129933
-0.0201946 -0.0220094 0.128388
0.0286431 -0.0228589 0.124527
-0.316588 -0.0247123 0.116032
0.0377172 -0.0245579 0.114488
0.0371303 -0.0227045 0.120666
-0.166615 -0.0237856 0.109082
-0.0583443 -0.0251757 0.102131
-0.0503128 -0.0250212 0.109082
0.0527454 -0.0237084 0.102131
0.0670708 -0.0258707 0.0874585
0.0739671 -0.0250985 0.0913198
0.0617963 -0.0250985 0.0905475
-0.0696965 -0.0257163 0.0789636
-0.067148 -0.0262569 0.0658352
-0.07294 -0.0244807 0.071241
0.261526 -0.0240173 0.068152
0.264229 -0.0233995 0.0627462
-0.313267 -0.0217777 0.0465287
-0.0376477 -0.0257163 0.0395783
-0.0544057 -0.0240173 0.0418951
-0.0451386 -0.0247896 0.0411229
0.049556 -0.0248668 0.035717
-0.194571 -0.0247896 0.0388061
-0.190401 -0.0246351 0.0480732
0.265851 -0.02255 0.0418951
-0.028535 -0.0251757 0.0334003
0.0242413 -0.0264885 0.032628
0.0643756 -0.0251757 0.0287667
0.0606147 -0.0247896 0.0334003
-0.196811 -0.0253301 0.0318557
-0.298517 -0.0233223 0.0272222
-0.293266 -0.0235539 0.0225886
-0.187235 -0.0245579 0.0179551
-0.18986 -0.0244807 0.0256777
0.247857 -0.0230906 0.0110047
0.2511 -0.0228589 0.014866
0.255657 -0.0220094 0.0179551
-0.189629 -0.0257163 0.0102325
0.243687 -0.0238628 0.00637115
-0.256352 -0.0244807 -0.00366824
-0.184841 -0.0237084 0.00250985
-0.179898 -0.0224728 0.0133215
0.239594 -0.024249 -0.00135146
-0.196038 -0.024944 -0.00984632
-0.187775 -0.0241718 -0.00212372
-0.19125 -0.0246351 -0.00598502
-0.208317 -0.0255618 -0.0144799
-0.199977 -0.0244807 -0.0129354
0.23774 -0.0217005 -0.0198857
0.233184 -0.0224728 -0.0252915
0.132551 -0.0229361 -0.0361032
0.156645 -0.0238628 -0.0438258
0.176963 -0.0236312 -0.0808943
0.176809 -0.0244807 -0.0847556
0.176963 -0.0244034 -0.0893891
0.220442 -0.0212372 -0.0878446
0.232412 -0.026643 -0.246158
0.236582 -0.0267202 -0.244613
0.236659 -0.0264113 -0.241524
0.240134 -0.0252529 -0.244613
0.236505 -0.0265658 -0.247703
0.237895 -0.0264885 -0.245386
0.236119 -0.0257935 -0.238435
0.240212 -0.0247896 -0.237663
0.232026 -0.0254846 -0.240752
0.232875 -0.0265658 -0.251564
0.236582 -0.0258707 -0.252336
0.23998 -0.0250985 -0.248475
0.22106 -0.0237084 -0.248475
0.211947 -0.02255 -0.249247
0.213646 -0.0198471 -0.24693
0.217353 -0.0214688 -0.24693
0.225384 -0.0260252 -0.250792
0.225384 -0.0248668 -0.247703
0.228319 -0.0261024 -0.248475
0.261294 -0.0243262 -0.254653
0.26531 -0.0243262 -0.253108
0.257665 -0.0233223 -0.25697
0.273342 -0.025639 -0.255425
0.269403 -0.0238628 -0.252336
0.276353 -0.0261796 -0.260059
0.24276 -0.0246351 -0.264692
0.281991 -0.0251757 -0.268554
0.280292 -0.0247123 -0.261603
0.24832 -0.024944 -0.269326
0.204765 -0.0236312 -0.275504
0.252104 -0.024944 -0.268554
0.27674 -0.026643 -0.28091
0.282377 -0.0254846 -0.273959
0.270948 -0.0270291 -0.283227
0.273264 -0.0261796 -0.285543
0.285234 -0.0248668 -0.277048
0.279829 -0.0259479 -0.283999
0.318364 -0.0252529 -0.28091
0.309174 -0.0231678 -0.278593
0.302301 -0.0244807 -0.283227
0.327863 -0.0241718 -0.279365
0.329639 -0.0261024 -0.285543
0.274114 -0.0259479 -0.288632
0.332419 -0.0261024 -0.289405
0.333655 -0.0247896 -0.284771
0.33381 -0.0250985 -0.293266
0.329408 -0.0244807 -0.300988
0.333887 -0.0237084 -0.296355
0.325315 -0.0250985 -0.304078
0.316434 -0.0276469 -0.323384
0.321144 -0.026643 -0.319523
0.321531 -0.0257935 -0.314889
0.323925 -0.0268747 -0.322612
0.325392 -0.0250985 -0.316434
0.324697 -0.0270291 -0.327245
0.328558 -0.0261024 -0.324156
0.329176 -0.024944 -0.320295
0.329176 -0.0257935 -0.328018
0.289018 -0.0257935 -0.334968
0.303923 -0.0254074 -0.337285
0.327245 -0.0247123 -0.334968
0.228859 -0.0254074 -0.338829
0.32099 -0.0264113 -0.341918
0.323693 -0.0255618 -0.338829
0.230404 -0.0264885 -0.343463
0.23218 -0.0270291 -0.345007
0.228628 -0.0250212 -0.341918
0.228859 -0.0243262 -0.34578
0.240289 -0.0277241 -0.34578
0.233107 -0.0264885 -0.348096
0.236428 -0.0269519 -0.348869
0.24415 -0.0272608 -0.345007
0.311491 -0.0261796 -0.344235
0.307398 -0.0254846 -0.341918
0.318133 -0.026643 -0.344235
0.321222 -0.0253301 -0.34578
0.32516 -0.0245579 -0.344235
0.240289 -0.0271063 -0.348869
0.243764 -0.026643 -0.350413
0.317978 -0.0244807 -0.347324
0.313113 -0.0236312 -0.348096
0.2372 -0.0258707 -0.35273
0.232412 -0.0240173 -0.35273
0.248011 -0.0257163 -0.356591
0.28091 -0.0255618 -0.356591
0.259827 -0.0268747 -0.360453
0.272955 -0.0254074 -0.362769
0.278979 -0.0248668 -0.361225
0.267318 -0.0253301 -0.364314
0.258437 -0.0250985 -0.365086
0.23998 -0.025639 -0.356591
0.24415 -0.0254846 -0.356591
0.236196 -0.025639 -0.360453
0.252336 -0.0253301 -0.365086
0.251641 -0.0258707 -0.360453
0.251178 -0.0241718 -0.372036
0.247548 -0.0244034 -0.37667
0.243687 -0.0239401 -0.38362
0.188547 -0.0239401 -0.405244
