-0.071317 0.204191 0.213856 -0.533940 0.178839 -0.826393 
-0.048771 -0.059285 0.427378 -0.465840 -0.868084 0.171530 
0.067108 0.131212 -0.043766 0.568365 0.819456 -0.073847 
-0.040313 0.351871 0.411674 -0.360094 0.913718 -0.188287 
-0.040305 -0.228691 0.032327 0.963498 -0.093956 -0.250685 
0.032119 -0.217824 -0.328382 0.345371 -0.850961 -0.395707 
-0.054380 0.237402 0.385299 -0.311466 -0.911492 0.268648 
-0.024948 -0.053879 0.301510 -0.228718 -0.481458 0.846101 
-0.059622 0.198984 0.171270 -0.063217 0.816806 0.573438 
0.125521 0.033475 0.160564 0.997509 0.068030 0.018664 
0.069780 -0.204525 -0.044646 0.460024 -0.834536 0.303196 
0.163501 -0.132915 -0.094625 0.927908 -0.343960 0.143797 
0.020705 0.006999 -0.483185 -0.207152 0.345823 -0.915147 
-0.081440 0.318216 0.419984 -0.826239 0.461786 -0.322620 
0.015235 0.104081 -0.404400 0.237693 0.824939 -0.512814 
0.143910 -0.085009 -0.443363 0.797394 0.144464 -0.585912 
0.008508 -0.043869 0.468062 0.226705 -0.047684 0.972795 
-0.157835 -0.149324 0.061217 -0.961174 -0.275306 0.018743 
-0.077495 0.252879 0.426132 0.294622 -0.818450 0.493293 
-0.010534 0.012044 0.447932 0.683832 0.658434 0.314384 
0.057217 0.039301 0.472885 0.696830 -0.235858 0.677347 
0.019070 0.167674 0.154946 0.079114 0.934420 -0.347275 
-0.007471 -0.224446 -0.016367 -0.183084 -0.954121 0.236927 
-0.119576 0.076557 -0.267634 -0.852549 0.518990 0.061723 
0.004117 0.196762 0.201704 0.017702 0.672525 -0.739863 
-0.117477 0.076859 0.133249 -0.732334 0.550639 0.400603 
-0.091748 -0.270433 -0.356871 0.226334 0.357641 0.906017 
0.115606 0.079293 0.134095 0.757592 0.555276 0.343108 
0.061203 0.150103 0.154804 -0.204112 0.286925 -0.935955 
-0.005086 -0.223944 -0.012794 -0.119625 -0.966032 0.229067 
-0.042827 0.254791 0.334141 -0.873047 0.212305 -0.438993 
0.001369 -0.176773 -0.396693 0.038298 -0.768360 -0.638871 
0.135428 -0.251786 -0.400328 0.930047 -0.365957 -0.032976 
-0.018135 0.330611 0.492906 0.051954 0.499072 0.865002 
0.005586 -0.092477 -0.480959 -0.010857 -0.401280 -0.915891 
0.032157 0.131573 -0.327694 0.343690 0.907149 -0.242814 
-0.059074 -0.344720 -0.374989 0.782471 -0.509044 -0.358627 
0.073931 -0.355263 0.138398 -0.269327 -0.897900 0.348194 
-0.073227 0.161975 0.156784 -0.451313 0.425132 0.784589 
0.053623 0.138507 -0.179798 0.512438 0.858713 -0.004375 
0.059811 0.134592 -0.187656 0.535744 0.844297 -0.011891 
-0.081653 -0.333955 0.025007 -0.408905 -0.530855 -0.742286 
-0.033421 0.140643 0.278136 0.902823 -0.309478 0.298552 
0.121423 0.059283 0.147253 0.916827 0.322021 0.236074 
0.087697 -0.202657 -0.472447 -0.267707 0.497742 -0.824976 
0.136303 -0.229076 -0.316719 0.489969 -0.721536 0.489200 
0.177241 -0.145950 -0.387004 0.995838 0.008404 -0.090753 
0.116399 -0.239954 -0.323068 0.148162 -0.907494 0.393068 
0.111479 -0.242035 -0.327035 0.067330 -0.945166 0.319575 
-0.040953 0.028446 0.445495 0.874561 0.484793 -0.010908 
-0.039698 0.026506 0.443650 0.824766 0.551929 0.123027 
0.124449 -0.324122 0.063745 0.577657 0.800549 -0.159477 
-0.024273 0.010209 0.454536 -0.939336 0.271027 0.210217 
-0.064678 0.164165 0.185996 -0.904103 0.365736 0.220987 
-0.003316 -0.219471 0.060598 0.038165 -0.999128 -0.016945 
0.043058 0.098729 0.372735 -0.154289 0.349787 0.924037 
0.025637 0.049833 0.404732 0.648001 0.550868 0.525965 
0.019591 0.301658 0.497691 -0.203647 -0.603944 0.770571 
-0.100541 0.028919 0.266273 -0.931465 -0.339049 0.131976 
-0.029071 -0.317068 0.078848 0.768578 0.584549 0.259982 
-0.162083 -0.172532 -0.422421 -0.770271 -0.363835 -0.523743 
0.107030 -0.116975 0.195251 0.732108 -0.468231 0.494749 
0.015426 0.303160 0.497684 -0.215765 -0.545424 0.809912 
-0.008662 0.093296 0.270197 0.272670 0.938411 0.212217 
-0.116448 -0.323781 0.047650 -0.730057 0.475369 -0.490959 
-0.067670 0.014577 0.348693 -0.877283 -0.402932 -0.260808 
0.056988 0.036425 0.407299 0.278636 0.750635 0.599091 
-0.053053 0.230039 0.264222 -0.101802 0.831760 0.545721 
-0.053843 0.173539 0.154977 0.831861 -0.063994 -0.551281 
-0.167805 -0.131059 -0.254250 -0.973383 -0.193422 -0.122938 
0.072773 0.273863 0.481229 0.278114 -0.589036 0.758742 
-0.081871 0.016521 -0.462777 -0.523567 0.450485 -0.723146 
-0.038327 -0.070695 0.284203 -0.370534 -0.582064 0.723814 
0.122388 0.076116 0.121566 0.881460 0.469994 0.046202 
0.041078 0.222103 0.283495 0.743948 0.667955 0.019448 
-0.010057 0.100137 0.258780 0.390932 0.645202 0.656419 
0.045429 0.060672 0.473271 -0.992983 0.108181 0.047763 
-0.061297 0.173831 0.146946 0.603786 -0.140592 -0.784651 
0.145437 -0.172986 -0.123272 0.780295 -0.611392 0.131681 
-0.130293 -0.260202 -0.381256 -0.938876 -0.082655 0.334184 
-0.078322 0.292770 0.479931 -0.733202 0.092957 0.673628 
0.130790 -0.316566 -0.315812 0.269741 0.784543 0.558330 
-0.009880 -0.053422 -0.492565 -0.601809 -0.240216 -0.761657 
0.154773 -0.339880 -0.374221 0.735301 0.071645 -0.673944 
0.007079 0.176215 0.179038 -0.084584 0.896715 -0.434452 
0.081465 -0.323603 -0.414623 -0.583418 -0.073220 -0.808865 
0.099320 -0.218185 -0.294161 -0.244561 -0.703156 0.667653 
0.131552 -0.318221 -0.313818 0.253037 0.805091 0.536471 
-0.098286 -0.101867 0.214844 -0.600913 -0.393465 0.695765 
0.011739 0.358710 0.452672 -0.070712 0.974890 0.211162 
0.055504 0.237270 0.378670 0.683130 -0.730286 -0.003986 
0.030122 0.218451 0.227659 -0.136041 0.900499 -0.413032 
-0.056981 0.198489 0.170751 0.503095 0.797325 0.333419 
-0.076246 0.262535 0.466510 -0.084114 -0.869030 0.487558 
-0.020550 -0.348434 0.106930 0.902044 -0.411121 0.131516 
-0.022112 0.159440 0.303834 0.214765 -0.919014 0.330590 
-0.131340 -0.344257 -0.286383 0.526615 0.265032 0.807734 
0.165774 -0.327123 -0.333796 0.471297 0.881914 0.010377 
-0.085859 -0.203886 -0.472931 0.405635 0.493928 -0.769087 
0.123367 -0.355319 -0.373833 0.226598 -0.963555 -0.142183 
0.132881 -0.356616 -0.362839 -0.159625 -0.982593 -0.095028 
-0.007812 -0.218604 0.034175 -0.037159 -0.998341 -0.043993 
0.099971 -0.010555 -0.463233 0.610379 0.344466 -0.713288 
0.046593 -0.183027 -0.399001 -0.449049 -0.786593 -0.423823 
-0.021376 0.014526 0.446397 -0.323407 0.930913 0.169731 
-0.008482 0.117168 0.248893 0.241584 0.230763 0.942542 
0.054328 -0.001625 0.331095 0.629714 -0.719613 0.292605 
-0.040332 -0.076597 0.278284 -0.392911 -0.597889 0.698678 
-0.081531 0.171555 0.238274 -0.978974 0.135198 -0.152747 
0.042114 0.029489 0.441786 -0.749639 0.657698 -0.073995 
0.083157 -0.292164 0.076862 0.482289 0.558931 0.674531 
-0.085450 -0.351327 0.127469 -0.838405 -0.519120 0.166109 
0.008901 -0.046815 0.467510 0.207175 -0.233815 0.949952 
0.132754 0.036426 0.110274 0.949330 0.197922 -0.244128 
-0.121328 -0.332124 0.089040 -0.343362 0.724404 0.597780 
-0.127427 -0.327750 0.082701 -0.124387 0.854466 0.504396 
-0.128636 -0.329293 0.084647 -0.139701 0.774036 0.617537 
-0.059201 0.044301 0.471452 -0.875380 -0.100493 0.472874 
-0.168409 -0.196946 -0.375584 -0.863575 -0.465995 -0.192580 
-0.003908 -0.070663 0.422624 -0.022471 -0.999100 0.035971 
0.129875 0.057990 0.124592 0.952029 0.305119 -0.023322 
-0.016525 0.060422 0.403264 -0.496413 0.624267 0.603213 
0.170860 -0.355483 -0.317335 0.261219 -0.908761 0.325451 
-0.052070 0.188414 0.332577 -0.753974 0.108135 0.647943 
0.090835 -0.351644 0.112698 -0.031529 -0.872153 0.488216 
0.031193 0.312418 0.498986 0.118758 0.177385 0.976950 
-0.122000 0.071373 -0.318988 -0.830803 0.546777 -0.103931 
0.008510 -0.218302 0.025956 0.105558 -0.994410 0.002443 
-0.167061 -0.343160 -0.358219 -0.855719 0.148384 -0.495708 
0.075648 -0.323703 -0.319299 -0.331682 0.765594 0.551229 
-0.168376 -0.340769 -0.354946 -0.837766 0.262931 -0.478555 
0.042442 -0.225948 -0.060113 0.406773 -0.836996 0.366025 
0.120274 -0.175666 -0.000307 0.663599 -0.559320 -0.496787 
-0.067410 -0.076525 0.257724 -0.575815 -0.597335 0.558237 
0.045611 0.060344 0.470668 -0.960716 0.192013 -0.200391 
-0.075217 -0.201736 -0.006246 -0.572178 -0.537388 -0.619537 
0.173236 -0.333859 -0.328518 0.814946 0.565215 0.128040 
-0.092418 -0.344620 -0.275895 0.541202 0.417266 0.730061 
-0.058567 0.240690 0.392463 -0.297046 -0.938125 0.178003 
-0.023298 -0.167071 -0.400671 0.235483 -0.744981 -0.624141 
0.034265 0.232379 0.377093 0.275107 -0.800941 0.531799 
-0.061448 -0.330375 0.016233 -0.069914 -0.478509 -0.875295 
-0.137803 -0.009067 0.149529 -0.961590 0.089232 0.259583 
-0.064393 -0.304981 -0.391840 0.876541 -0.001089 -0.481325 
0.146292 -0.217853 -0.314814 0.687119 -0.525643 0.501564 
0.011337 0.019126 -0.483060 0.663104 0.268471 -0.698725 
-0.094395 -0.222642 -0.476686 -0.230469 -0.339402 -0.911970 
-0.068587 -0.157562 -0.457178 0.180929 -0.634886 -0.751122 
0.123040 -0.106016 0.152534 0.941144 -0.260485 0.215396 
-0.077708 -0.034098 0.273331 -0.774455 -0.224298 0.591532 
0.060621 0.050342 0.465399 0.986405 0.150314 -0.066407 
-0.026482 -0.334272 0.053225 0.975569 -0.143469 -0.166381 
0.057018 -0.334668 -0.297787 -0.006899 0.641350 0.767217 
-0.133414 -0.339189 0.059755 -0.779471 0.172970 -0.602085 
-0.050220 -0.206291 -0.012055 -0.251870 -0.928376 -0.273276 
-0.157753 -0.198574 -0.317466 -0.855743 -0.331581 0.397188 
-0.077885 0.032327 0.336688 -0.838643 -0.287617 0.462552 
-0.132034 -0.243243 -0.351845 -0.593329 -0.685401 0.422121 
-0.017447 0.016012 0.442562 -0.016499 0.957494 0.287981 
-0.134957 -0.242637 -0.355352 -0.683009 -0.617310 0.390419 
-0.067018 0.244766 0.405867 -0.271073 -0.955597 0.115555 
-0.063650 -0.156271 -0.456751 0.308211 -0.616557 -0.724475 
-0.074226 -0.034030 0.428016 -0.835053 -0.503018 0.222845 
0.097132 -0.357707 -0.386337 0.050508 -0.990085 -0.131076 
-0.149635 0.018430 -0.131514 -0.930268 0.366855 -0.004349 
0.020585 -0.142299 -0.432899 -0.024583 -0.805690 -0.591827 
-0.158395 -0.087477 -0.419654 -0.880286 0.230513 -0.414680 
0.014006 -0.218599 0.094646 -0.020683 -0.992744 0.118451 
0.034346 0.150493 0.082758 0.207049 0.962373 -0.175981 
-0.017706 0.170593 0.326204 0.672643 -0.621701 0.401297 
0.090092 -0.077374 0.231234 0.663812 -0.209829 0.717862 
0.083067 -0.358030 -0.321932 -0.128422 -0.989718 -0.062972 
0.139192 -0.027699 0.121369 0.998220 -0.057927 -0.014209 
-0.053590 0.049869 0.456862 -0.052242 0.582919 -0.810849 
-0.004409 0.011343 0.442089 0.345193 0.604911 0.717582 
0.042714 -0.059018 0.391203 0.456950 -0.838808 -0.295971 
0.091425 -0.351145 -0.274956 -0.619093 -0.110435 0.777514 
0.055701 -0.318767 -0.343643 -0.675385 0.707757 0.207208 
0.115736 -0.170467 -0.452468 0.320058 -0.289472 -0.902092 
0.075694 -0.351565 -0.400235 -0.449222 -0.742893 -0.496296 
-0.051450 -0.208246 -0.361048 0.461857 -0.780934 -0.420512 
0.094423 0.281665 0.428353 0.979400 0.005959 -0.201842 
-0.056982 -0.091484 -0.490080 0.157105 -0.190116 -0.969110 
-0.047642 -0.095937 -0.486609 0.288267 -0.299647 -0.909458 
0.033835 0.336252 0.487808 0.154480 0.619905 0.769320 
-0.048733 -0.177479 -0.413073 0.530943 -0.759744 -0.375351 
0.049876 0.161187 0.164964 -0.752688 0.257777 -0.605814 
-0.128748 -0.286245 -0.367053 -0.844923 0.231794 0.482055 
-0.021836 -0.031489 0.336463 -0.391565 -0.689983 -0.608769 
0.077927 -0.180784 0.151995 0.330751 -0.608387 0.721435 
0.058609 0.245586 0.403158 -0.641764 -0.540820 0.543740 
-0.051630 -0.344385 -0.361735 0.891785 -0.232460 -0.388177 
-0.083606 -0.357958 -0.373746 0.157912 -0.986710 0.038297 
-0.047302 -0.345753 -0.349912 0.942762 -0.121154 -0.310679 
-0.034779 0.129904 0.301899 0.982621 -0.006251 -0.185516 
0.069073 -0.343512 -0.299419 0.377478 0.138917 0.915540 
0.144296 -0.231675 -0.343336 0.569785 -0.816855 -0.089956 
0.097965 -0.279835 0.049529 0.970390 -0.180300 0.160732 
0.144112 -0.232164 -0.338949 0.554557 -0.832031 -0.013838 
0.056281 -0.358021 -0.325513 -0.194386 -0.980925 0.000322 
-0.045018 -0.349635 -0.313369 0.869063 -0.466016 0.166006 
0.098722 -0.276230 0.050150 0.963141 -0.243279 0.114779 
0.020626 -0.223031 -0.027212 0.398864 -0.871158 0.286342 
0.106923 -0.170899 0.144007 0.473284 -0.348907 0.808867 
0.160362 -0.160649 -0.192826 0.876976 -0.479388 0.033158 
-0.108773 0.086509 0.185585 -0.897724 0.435418 0.067096 
-0.061608 -0.311755 0.010853 -0.197411 -0.169591 -0.965540 
0.034904 -0.221540 0.085243 -0.190774 -0.959686 0.206416 
-0.137303 -0.353079 0.088411 -0.271920 -0.911352 0.309027 
0.039701 0.046930 0.398916 -0.098704 0.601540 0.792721 
0.103360 -0.198102 -0.465278 0.637865 0.197015 -0.744522 
-0.025560 -0.339020 0.122165 0.789865 0.225033 0.570503 
0.028326 0.223203 0.258839 0.196909 0.978027 -0.068484 
0.078409 0.130394 0.163491 0.887885 0.344822 -0.304562 
-0.081652 0.019524 0.403274 -0.854779 0.481822 0.192875 
-0.046160 0.175863 0.201348 -0.413564 0.170976 -0.894277 
-0.041944 0.164737 0.187331 -0.440969 0.879479 -0.179061 
-0.097243 -0.299663 0.033071 -0.878516 0.242515 -0.411578 
-0.096912 -0.295833 0.034484 -0.917107 0.192412 -0.349131 
-0.074683 -0.354503 -0.304074 0.334409 -0.829929 0.446529 
0.076100 -0.128828 0.210366 0.412510 -0.583030 0.699937 
-0.060122 0.325213 0.483421 -0.561718 0.475231 0.677221 
0.093926 -0.360153 -0.311153 -0.007229 -0.997942 -0.063711 
-0.030897 -0.038095 0.307092 -0.322334 -0.451674 0.831920 
0.092254 0.113879 0.190851 0.688581 0.707114 -0.160769 
-0.094256 -0.247611 -0.459011 -0.231192 -0.520292 -0.822099 
0.084991 0.048659 0.330761 0.835553 -0.016814 0.549152 
0.140978 -0.234099 -0.336503 0.508047 -0.859882 0.049911 
-0.077307 -0.265120 -0.367071 0.641640 0.265263 0.719676 
-0.109433 -0.291417 -0.342420 -0.191327 0.744934 0.639114 
-0.113036 0.016559 0.223671 -0.846028 0.073792 0.528006 
-0.133237 -0.279519 -0.381028 -0.983547 0.073830 0.164877 
-0.032623 -0.048084 0.457044 -0.513873 -0.218645 0.829535 
-0.057057 -0.306199 0.090588 0.584780 0.641051 0.497078 
0.012752 -0.039844 -0.491718 0.438987 0.011533 -0.898419 
-0.147026 -0.142952 -0.446986 -0.636059 -0.041700 -0.770513 
-0.034127 -0.043237 0.456508 -0.490903 0.093927 0.866136 
-0.001580 -0.222560 -0.005113 -0.033011 -0.980091 0.195786 
0.032970 0.298126 0.497680 -0.096531 -0.532246 0.841068 
-0.108345 -0.358278 -0.318171 -0.068083 -0.997581 0.014053 
0.005714 -0.109730 0.246580 0.057887 -0.759811 0.647562 
-0.111378 -0.324511 0.100263 -0.692921 0.716489 0.080653 
-0.048263 0.268352 0.467716 0.181882 -0.474435 0.861296 
-0.039835 -0.240774 0.070339 0.944331 -0.052648 0.324756 
0.077848 -0.177951 0.154600 0.439877 -0.632524 0.637512 
-0.022265 0.068036 0.384932 -0.687549 0.542013 0.483217 
-0.063964 0.312126 0.487258 -0.556036 0.299141 0.775461 
-0.014961 -0.189561 0.177920 -0.194404 -0.797761 0.570775 
-0.104696 0.100635 0.216246 -0.928333 0.369566 0.040241 
0.062410 -0.200116 0.136948 0.115241 -0.804581 0.582553 
0.125881 0.031827 0.157350 0.979186 0.122265 0.162008 
0.090478 0.112654 -0.033823 0.716342 0.689106 -0.109489 
-0.138616 -0.111796 0.127622 -0.820315 -0.007837 0.571859 
0.054937 0.317662 0.381556 0.582151 0.486782 -0.651263 
0.046588 -0.355632 0.112312 0.143776 -0.988557 0.045639 
-0.041959 -0.227666 -0.063767 -0.396156 -0.845495 0.358048 
-0.043874 -0.055547 0.443551 -0.456641 -0.735779 0.500108 
0.130753 -0.249601 -0.360580 0.537975 -0.747437 0.389770 
0.125776 -0.006087 0.170845 0.850137 0.205940 0.484619 
-0.108937 0.089714 0.089667 -0.868163 0.447858 -0.213812 
-0.102724 -0.314605 0.092893 -0.633169 0.698624 0.333199 
-0.086977 -0.282064 0.021848 -0.691054 0.076575 -0.718735 
-0.093483 0.111581 0.186251 -0.725589 0.679482 -0.108747 
-0.098399 -0.332972 -0.284842 -0.266999 0.722875 0.637310 
0.125609 -0.155289 -0.013655 0.811589 -0.535023 -0.234679 
-0.008336 0.345721 0.382002 -0.233899 0.866570 -0.440849 
0.062985 0.192757 0.284234 0.776911 0.612871 0.144218 
-0.110761 -0.265405 -0.360019 -0.381913 0.147526 0.912348 
-0.021570 0.166867 0.342497 0.865115 0.238646 0.441163 
-0.071456 -0.027740 0.385154 -0.803527 -0.456229 -0.382359 
0.075554 0.147988 0.156602 0.636102 -0.414408 -0.650876 
0.098775 0.121644 0.237736 0.890850 0.415251 -0.184261 
0.129979 -0.270770 -0.375386 0.858256 0.239293 0.454021 
0.086196 -0.007085 0.417822 0.988724 -0.090829 0.119062 
0.071459 0.251321 0.420454 -0.560181 -0.457054 0.690868 
-0.075545 0.128310 0.115387 -0.599864 0.789908 0.127311 
0.047587 -0.209320 -0.005772 -0.225942 -0.867684 -0.442804 
-0.069659 0.183265 0.211632 -0.616149 -0.014342 -0.787499 
0.070548 0.257483 0.423898 -0.686138 -0.674215 0.273220 
0.029591 -0.228803 -0.052877 0.366735 -0.863159 0.347077 
0.117314 0.078565 0.062272 0.861295 0.483945 0.154818 
0.062691 0.251736 0.451430 0.609426 -0.792842 0.000570 
-0.153439 -0.012339 0.022918 -0.967022 0.254659 -0.004161 
-0.102893 0.104457 0.217471 -0.896301 0.443191 0.015080 
0.126047 -0.159340 -0.007581 0.783325 -0.429915 -0.448972 
0.129851 0.056045 -0.328635 0.876467 0.463695 -0.129584 
0.056543 -0.022433 -0.491361 0.290310 0.163688 -0.942829 
0.021355 0.092750 0.323411 -0.355862 0.927081 -0.117824 
0.020096 0.092285 0.321924 -0.127172 0.990597 -0.050438 
0.075918 0.273016 0.391419 0.819208 -0.072275 -0.568924 
-0.137043 -0.353542 0.086427 -0.285029 -0.950666 0.122445 
0.066307 -0.319208 -0.330024 -0.062664 0.944747 0.321754 
0.000911 -0.243299 -0.084774 0.000823 -0.982826 0.184535 
-0.029212 -0.029242 0.451583 -0.078386 0.441695 0.893735 
-0.076297 0.090859 0.328840 -0.838866 -0.042157 0.542703 
-0.087955 0.158554 0.258985 -0.969961 0.242713 0.016321 
-0.040093 -0.209435 0.016708 0.523222 -0.793834 -0.309945 
0.013069 -0.239612 -0.283470 0.168904 -0.950381 -0.261243 
0.047316 0.349661 0.423409 -0.139921 0.990160 -0.002134 
0.064498 -0.305753 -0.354262 -0.554580 0.625220 0.549128 
-0.038984 -0.208456 0.015116 0.266934 -0.944756 -0.190219 
0.078535 0.174253 0.149733 0.632484 0.139092 0.761982 
-0.098435 -0.135731 0.186910 -0.662998 -0.582248 0.470553 
-0.048475 0.061666 0.479815 0.543811 -0.087614 0.834622 
-0.166615 -0.123904 -0.302171 -0.978704 0.017868 0.204498 
-0.141677 0.026975 0.023967 -0.946874 0.320510 -0.026516 
-0.086680 0.157746 0.244962 -0.954067 0.241437 -0.177381 
-0.063375 0.275500 0.481848 0.379291 -0.789535 0.482466 
0.023817 0.238391 0.402221 0.324150 -0.908814 0.262647 
-0.122577 -0.355811 0.073874 0.054446 -0.998488 -0.007607 
0.011660 0.256964 0.286751 0.446401 0.613997 -0.650949 
-0.078451 0.088138 0.325577 -0.796610 -0.031243 0.603686 
0.086082 0.318032 0.435702 0.874236 0.473551 -0.107054 
-0.099694 0.114646 0.290176 -0.941953 0.247549 0.226812 
-0.066575 -0.223169 -0.454459 0.752614 -0.118524 -0.647707 
-0.004830 -0.233523 -0.307633 -0.083310 -0.950795 -0.298411 
0.152946 -0.153533 0.085394 0.917358 -0.321592 0.234589 
0.081992 -0.325293 0.111580 0.645205 0.650349 0.400946 
0.041672 -0.180069 -0.399384 -0.463385 -0.772532 -0.434131 
0.121111 -0.280618 -0.359526 0.646091 0.393722 0.653873 
0.038362 0.147410 -0.046741 0.415217 0.909668 -0.009962 
0.020635 -0.337961 0.077697 -0.972744 0.153619 -0.173696 
0.086718 -0.352300 -0.404752 -0.133440 -0.816906 -0.561122 
0.059629 -0.351644 0.127630 -0.639401 -0.496960 0.586683 
-0.064350 0.253723 0.455976 -0.772189 -0.622338 0.128141 
0.111782 -0.245941 -0.340541 0.150586 -0.904836 0.398242 
0.058121 0.046969 0.474113 0.813585 -0.149145 0.561992 
-0.007397 0.088785 -0.429406 -0.168868 0.788261 -0.591716 
0.059429 -0.349318 0.128878 -0.674065 -0.309553 0.670681 
-0.008219 0.091692 -0.425225 -0.173564 0.795637 -0.580377 
-0.023766 -0.026599 0.322183 -0.380172 -0.799900 0.464359 
-0.035232 0.353916 0.417121 -0.703896 0.643413 0.300915 
0.110645 -0.191121 -0.074680 0.574766 -0.751729 0.323339 
0.093633 -0.227175 -0.474330 0.166458 -0.550919 -0.817790 
-0.019502 -0.347464 0.101941 0.942769 -0.307307 0.129416 
0.085957 -0.141086 -0.474791 -0.158760 -0.606317 -0.779214 
0.090388 -0.140092 -0.476236 -0.059155 -0.522613 -0.850515 
0.049674 0.043339 0.451720 -0.344234 0.690107 -0.636596 
0.124368 -0.138057 -0.463370 0.523319 -0.092959 -0.847052 
-0.088550 -0.340240 -0.282183 0.637991 0.377782 0.671005 
-0.121804 -0.261764 -0.367636 -0.683758 -0.113343 0.720852 
-0.053719 0.130028 -0.281191 -0.444661 0.887677 -0.119610 
0.063732 -0.280011 -0.395836 -0.987520 -0.141636 -0.068873 
-0.045413 0.349073 0.422914 0.293323 0.939984 0.174335 
0.145781 -0.137925 -0.040556 0.794432 -0.536130 0.285381 
0.155029 -0.323808 -0.336293 0.064486 0.956041 0.286056 
-0.013509 0.168515 0.319680 0.204719 -0.827590 0.522671 
0.071505 0.305463 0.391826 0.756647 0.273492 -0.593875 
0.047135 0.346959 0.467240 0.394547 0.827937 0.398564 
-0.013547 0.166622 0.316473 0.151264 -0.864603 0.479146 
-0.059240 0.181271 0.148627 0.701732 0.091274 -0.706570 
-0.113135 -0.354796 -0.301618 -0.281468 -0.885168 0.370476 
0.081852 0.125859 0.185020 0.814020 0.550005 0.186721 
0.095380 -0.189935 -0.006291 0.349247 -0.918419 -0.185832 
0.104218 -0.313683 0.036204 0.789708 0.265841 -0.552892 
0.024637 0.144101 -0.266747 0.285552 0.949879 -0.127242 
0.049263 -0.082491 -0.490441 -0.157761 -0.201659 -0.966667 
-0.004442 0.186081 0.192183 -0.007564 0.684469 -0.729003 
0.000079 0.142986 0.262801 0.007424 -0.874585 0.484816 
-0.140939 -0.359411 -0.316301 -0.268273 -0.959731 -0.083343 
-0.138359 -0.359718 -0.319164 -0.188767 -0.976967 -0.099514 
0.000364 -0.015311 0.450045 -0.002105 0.291120 0.956684 
0.003914 0.110331 -0.397261 0.064262 0.875498 -0.478930 
-0.145747 -0.357585 -0.322392 -0.244493 -0.968821 0.040106 
-0.026602 -0.182300 -0.380959 0.128631 -0.798716 -0.587798 
0.128294 -0.331106 0.057776 0.732281 0.493559 -0.469216 
-0.143181 -0.358776 -0.304332 -0.367799 -0.921914 0.121647 
0.113806 -0.336535 -0.297765 0.381126 0.576797 0.722529 
-0.056407 0.046691 0.475661 -0.676430 -0.169456 0.716748 
-0.020581 0.271515 0.455891 0.332080 -0.668889 0.665065 
0.029549 0.154821 0.298889 -0.673089 -0.734412 0.087124 
0.006865 0.145492 0.268268 -0.090819 -0.888261 0.450272 
0.049415 0.046689 0.455067 -0.406628 0.596763 -0.691756 
0.090447 -0.170442 0.152825 0.401441 -0.439927 0.803312 
-0.019501 -0.347749 0.082631 0.945145 -0.274985 -0.176308 
-0.023476 0.159576 0.131780 -0.125256 0.943493 -0.306810 
0.033598 0.223131 0.237986 -0.505118 0.843739 -0.181549 
-0.136129 -0.297418 -0.378807 -0.936040 0.344363 0.072408 
0.089246 -0.295428 -0.426570 -0.288129 -0.397820 -0.871046 
0.058448 -0.204276 -0.378679 -0.914859 -0.390594 -0.102322 
-0.059397 -0.339318 -0.295523 -0.254235 0.512259 0.820339 
0.058405 0.232034 0.226733 0.119733 0.824840 -0.552542 
-0.114354 -0.319711 0.049173 -0.745371 0.595911 -0.298853 
0.088911 -0.226704 -0.150163 0.494063 -0.860105 0.126971 
0.070191 0.229118 0.231848 0.682554 0.678811 -0.270805 
0.137248 0.017643 -0.381232 0.892667 0.367975 -0.260270 
0.077801 -0.357068 0.124422 0.217463 -0.972342 0.085211 
0.010496 0.093031 -0.422567 0.215136 0.790505 -0.573427 
0.150725 -0.160918 0.082228 0.888249 -0.406769 0.213431 
-0.122211 -0.264121 -0.425376 -0.734142 -0.340271 -0.587581 
-0.114848 0.080653 -0.207121 -0.855612 0.516617 -0.032168 
-0.090241 -0.228471 -0.308468 0.307157 -0.725223 0.616203 
0.049130 0.191699 0.335512 0.653722 -0.004037 0.756724 
0.080412 0.126928 0.164604 0.846615 0.490400 -0.206765 
0.162476 -0.357786 -0.324473 0.018347 -0.965253 0.260673 
-0.047911 -0.330952 -0.315804 0.774405 0.628345 0.074017 
-0.013836 -0.029720 0.326516 -0.353356 -0.933582 -0.059705 
-0.052828 0.236553 0.384085 -0.183347 -0.925756 0.330695 
-0.101826 0.099166 -0.272200 -0.688661 0.724837 -0.018920 
-0.071962 -0.342228 -0.404032 0.747283 -0.240231 -0.619562 
-0.020099 -0.218244 0.039852 -0.140762 -0.970754 -0.194482 
-0.044286 -0.234799 0.081012 0.859315 -0.118108 0.497623 
0.058415 0.055516 0.463049 0.729416 0.383731 -0.566306 
-0.143961 0.013160 0.069859 -0.929911 0.322144 0.177450 
-0.089142 -0.255164 -0.356005 0.439663 -0.612902 0.656542 
0.134361 -0.145624 -0.004457 0.842630 -0.420421 -0.336482 
-0.138376 -0.006152 0.146201 -0.972183 0.075231 0.221810 
-0.023073 0.224851 0.256718 -0.568644 0.815191 -0.110037 
0.125487 0.060109 0.138672 0.800476 0.399577 0.446740 
-0.128460 -0.166953 0.002640 -0.720949 -0.450108 -0.526912 
-0.147108 -0.332115 -0.312788 -0.799800 0.591378 0.102914 
0.068141 -0.018227 0.444340 0.321260 0.021144 0.946755 
0.105550 0.085723 -0.341989 0.674474 0.707344 -0.211540 
-0.084802 0.002985 0.420325 -0.945253 0.232023 0.229481 
-0.095452 -0.253104 -0.350667 0.204988 -0.735875 0.645343 
-0.091844 -0.256668 -0.355783 0.349393 -0.607478 0.713369 
-0.124486 -0.166323 -0.452010 -0.244437 -0.550145 -0.798493 
0.079233 0.319400 0.415591 0.803551 0.466549 -0.369645 
0.007072 -0.210865 -0.353897 0.119235 -0.814047 -0.568428 
-0.062703 0.158231 0.203629 -0.482140 0.509638 -0.712608 
-0.082969 0.169039 0.259514 -0.891971 0.447736 0.062612 
-0.075451 -0.261410 -0.442239 0.626544 -0.456490 -0.631712 
0.063917 0.047165 -0.451318 0.379908 0.607536 -0.697546 
-0.119026 0.067466 0.142740 -0.845981 0.452598 0.281907 
0.019513 0.055661 -0.456321 0.392496 0.571823 -0.720392 
0.065164 -0.219924 -0.360571 -0.891316 -0.444287 0.090362 
-0.064368 -0.283399 -0.377935 0.943318 0.235861 0.233496 
0.076584 0.255057 0.430274 -0.368593 -0.900827 0.229455 
0.041535 0.347385 0.430605 -0.550513 0.603014 -0.577330 
-0.017976 -0.217050 0.030746 -0.235783 -0.962126 -0.136824 
0.156715 -0.219561 -0.336063 0.804329 -0.539656 0.248649 
0.155210 -0.219197 -0.331513 0.792776 -0.505754 0.340175 
0.106276 -0.178516 -0.041074 0.601436 -0.746364 0.284982 
0.072424 -0.355833 0.134391 -0.248245 -0.945701 0.209818 
0.046423 0.146445 -0.000652 0.360210 0.931407 -0.052258 
0.130547 -0.201736 -0.244093 0.660100 -0.751007 0.016016 
0.054807 -0.184302 -0.409455 -0.811028 -0.494450 -0.312654 
-0.049046 -0.350814 -0.300697 0.803544 -0.524149 0.282107 
-0.120076 -0.207452 0.103267 -0.641745 -0.491782 0.588485 
-0.035501 -0.301709 0.027012 0.920864 -0.079382 -0.381718 
-0.014355 0.241671 0.416188 -0.071621 -0.848573 0.524209 
0.011437 -0.028036 -0.492644 0.730879 0.039077 -0.681387 
0.016904 -0.058411 0.457727 0.230603 -0.754756 0.614137 
0.096929 -0.306997 0.085805 0.497887 0.807412 0.316534 
-0.021218 0.140537 -0.303933 -0.280722 0.947741 -0.151602 
0.088512 -0.301927 -0.424066 -0.381071 -0.240377 -0.892751 
0.058558 -0.344464 0.129096 -0.671661 -0.011660 0.740767 
0.006410 0.182361 0.330709 -0.166323 -0.529812 0.831646 
0.162084 -0.213444 -0.352870 0.813707 -0.574668 -0.087396 
0.024711 0.007787 0.454554 0.959165 -0.033936 0.280803 
-0.120564 -0.352836 -0.296188 0.579704 -0.571880 0.580428 
0.107981 -0.135140 0.162726 0.816554 -0.495713 0.295818 
0.034947 0.120991 0.292570 -0.974966 0.222339 0.002554 
0.034896 0.121536 0.287635 -0.967929 0.241031 0.070829 
0.117837 -0.027772 -0.453914 0.728823 0.327097 -0.601518 
0.035296 0.343298 0.480427 0.196067 0.766210 0.611948 
0.052717 0.333142 0.482961 0.444379 0.611986 0.654218 
0.039035 0.355144 0.455002 0.304882 0.908571 0.285563 
-0.025720 0.058412 0.391558 -0.687977 0.600231 0.407936 
-0.085414 -0.349087 0.131652 -0.937117 -0.243887 0.249661 
-0.176366 -0.096523 -0.209198 -0.997922 -0.015206 -0.062622 
-0.141445 -0.343239 0.076508 -0.978224 0.029463 -0.205452 
-0.066069 -0.285222 -0.402715 0.904475 -0.316440 -0.285992 
0.111468 -0.333282 -0.298998 0.514706 0.628494 0.583158 
0.056282 -0.223743 0.098017 -0.527432 -0.432581 0.731225 
0.080748 -0.326297 0.115953 0.655939 0.682168 0.323097 
-0.111189 -0.344621 0.126950 0.182743 0.341845 0.921817 
0.021378 0.175008 0.174578 0.176556 0.928737 -0.326000 
0.081803 0.008836 0.422946 0.794622 0.475378 0.377613 
-0.174328 -0.072892 -0.144646 -0.993947 0.095033 0.055122 
0.077699 -0.083387 0.239494 0.583258 -0.448210 0.677435 
0.042194 0.320897 0.373329 0.548293 0.562617 -0.618738 
-0.148483 -0.148844 0.102379 -0.903385 -0.222757 0.366436 
0.087796 -0.256561 -0.453981 -0.168674 -0.552887 -0.816005 
0.077697 0.149649 0.213598 0.804753 0.327295 -0.495227 
-0.144192 -0.344221 -0.285811 -0.703467 0.444653 0.554453 
0.079322 -0.265433 0.086073 0.220111 -0.532738 0.817155 
-0.169402 -0.060921 -0.087558 -0.989566 0.127880 0.066376 
-0.140063 0.001558 0.093566 -0.894985 0.262821 0.360454 
0.033975 0.149426 -0.030801 0.340468 0.940095 -0.017408 
-0.000841 -0.239143 -0.289616 -0.010993 -0.958590 -0.284577 
-0.141195 0.036231 -0.098983 -0.911434 0.407257 0.058560 
-0.047619 0.349453 0.422985 0.034036 0.999400 0.006360 
-0.103167 -0.326997 -0.297603 -0.543004 0.719910 0.432291 
-0.016983 -0.131619 -0.447728 -0.142173 -0.782357 -0.606386 
0.150808 -0.320935 -0.345068 0.229644 0.952149 0.201681 
-0.024490 -0.330028 0.102208 0.765711 0.625028 0.151748 
0.013423 -0.209336 -0.354231 0.206939 -0.799688 -0.563626 
0.061991 0.172921 0.184802 0.906250 0.265961 0.328597 
-0.077370 -0.355141 0.139651 -0.168093 -0.923938 0.343633 
-0.112135 -0.322771 0.079875 -0.549347 0.796006 0.254152 
-0.045885 0.065969 0.475469 0.980583 0.152591 0.123177 
-0.017358 0.243223 0.417890 -0.140325 -0.810732 0.568351 
-0.010366 0.314868 0.337540 -0.342651 0.697510 -0.629341 
0.058649 0.266672 0.365689 0.853975 0.093415 -0.511859 
-0.052973 0.222722 0.272313 -0.321711 0.600995 0.731647 
-0.154765 -0.214483 -0.387372 -0.893366 -0.443859 -0.069902 
-0.060613 0.029584 0.462021 -0.921132 -0.200636 0.333559 
-0.041112 -0.063404 0.424438 -0.380835 -0.916347 0.123585 
0.035467 0.154859 0.126461 0.334881 0.887404 -0.316812 
-0.111959 -0.321881 0.077537 -0.503308 0.820718 0.270376 
0.070213 0.169108 0.154927 0.398844 0.278396 0.873739 
0.081002 -0.168880 -0.455526 -0.525622 0.110081 -0.843566 
0.043786 0.221145 0.217799 -0.353067 0.617429 -0.702941 
-0.033664 -0.201096 -0.354600 -0.096490 -0.812525 -0.574884 
0.020451 0.069842 0.385941 0.730840 0.560350 0.389718 
-0.122400 -0.202999 0.104255 -0.688945 -0.452801 0.565974 
0.075966 -0.015600 0.440126 0.661079 -0.030721 0.749687 
0.167277 -0.356649 -0.320338 0.032506 -0.974948 0.220046 
0.057544 0.188631 0.205925 0.271889 0.108817 -0.956156 
0.095071 -0.255358 -0.453969 0.312421 -0.536042 -0.784252 
-0.077607 0.130653 0.162532 -0.866467 0.410667 -0.283881 
-0.124061 -0.323423 0.068885 -0.422318 0.906427 -0.006084 
0.036888 0.006090 0.450798 -0.530372 0.019752 0.847535 
0.104885 -0.321885 0.034954 0.637404 0.054265 -0.768616 
0.034143 0.346324 0.430530 0.583727 0.371906 -0.721768 
-0.063709 0.163418 0.177557 -0.928156 0.320961 -0.188440 
0.137521 -0.199609 0.068320 0.943403 -0.315840 0.101174 
-0.050333 0.242958 0.391710 0.534098 -0.564380 0.629456 
0.134993 -0.201093 0.041157 0.905160 -0.310596 -0.290199 
0.126457 -0.095317 0.149805 0.958254 -0.244285 0.148572 
0.152006 -0.161856 0.074173 0.899643 -0.407334 0.157231 
0.127798 -0.093545 0.144825 0.952328 -0.159641 0.259972 
0.060026 -0.217776 -0.324856 -0.599346 -0.733647 0.320228 
0.047908 -0.207778 -0.019612 0.409965 -0.895622 0.172595 
-0.086193 -0.168124 -0.458186 0.342852 0.181571 -0.921675 
0.029281 -0.126511 -0.455832 -0.365246 -0.693795 -0.620681 
0.054706 0.232371 0.260250 0.100289 0.870148 0.482478 
-0.144702 -0.358222 -0.368660 0.031422 -0.959162 -0.281108 
-0.066720 -0.189011 -0.446238 0.849725 0.213348 -0.482131 
0.142570 -0.113690 0.122009 0.839506 -0.015400 0.543132 
0.071512 0.248162 0.417611 -0.211975 -0.795888 0.567124 
-0.042964 -0.343628 -0.323457 0.994849 -0.049568 -0.088419 
0.006510 0.070721 -0.450720 0.225106 0.697528 -0.680281 
0.140676 -0.343141 0.074119 0.976036 -0.042606 -0.213395 
0.046326 -0.001838 -0.488683 0.164641 0.342868 -0.924843 
0.027733 -0.173694 -0.394379 -0.430476 -0.760157 -0.486674 
0.027353 -0.065405 0.393007 0.201339 -0.945064 -0.257521 
-0.115684 -0.345704 -0.294742 -0.342365 -0.074019 0.936647 
-0.074240 0.015719 -0.468435 -0.473808 0.453219 -0.755049 
-0.032192 -0.209359 0.009486 -0.339178 -0.939837 0.040792 
-0.034493 0.153426 0.121914 -0.332358 0.885086 -0.325823 
-0.139653 0.026396 0.066704 -0.922196 0.351163 0.161984 
-0.028663 0.124253 0.262646 0.846009 0.079498 0.527208 
-0.104036 -0.038264 0.230737 -0.889670 -0.303095 0.341498 
0.145078 -0.179485 0.054213 0.913821 -0.403299 -0.047762 
0.040843 -0.343512 0.031850 -0.344039 -0.786554 -0.512805 
0.082745 -0.213281 -0.292160 0.117632 -0.991742 -0.051099 
-0.037879 0.102525 0.370064 0.263018 0.314987 0.911924 
0.039687 -0.344772 0.034943 -0.357877 -0.839373 -0.409118 
-0.166507 -0.073938 -0.357078 -0.966507 0.255697 0.021992 
0.176034 -0.112105 -0.188016 0.991241 -0.131278 0.014369 
-0.050311 0.237409 0.385575 0.243258 -0.822051 0.514838 
-0.104438 -0.320831 0.103459 -0.263172 0.848852 0.458466 
-0.040977 -0.227022 0.077844 0.794147 -0.495109 0.352417 
0.030055 0.170632 0.345430 -0.199310 0.487739 0.849933 
0.114775 0.077759 0.138844 0.826888 0.509023 0.239066 
-0.032462 0.149928 0.291233 0.831248 -0.536057 0.147208 
-0.086332 0.061772 0.324136 -0.910310 0.214558 0.353977 
0.086821 0.118839 0.188647 0.726997 0.685959 -0.030576 
0.047427 0.223705 0.331976 0.985286 0.143271 -0.093188 
-0.030303 -0.138323 -0.443990 0.542998 -0.619160 -0.567269 
0.138197 -0.004813 0.147770 0.958888 0.096655 0.266819 
-0.020391 -0.113676 0.242088 -0.112205 -0.469243 0.875911 
0.096239 -0.153967 0.159861 0.674855 -0.545194 0.497328 
-0.021953 0.083642 0.370655 0.258844 0.618110 0.742254 
0.083869 0.276403 0.403097 0.858527 -0.043865 -0.510889 
-0.042946 -0.027140 0.308421 -0.525133 -0.690985 0.496764 
-0.028652 0.027892 0.419879 0.235194 0.878440 0.415965 
0.086623 0.118835 0.164847 0.764816 0.644157 0.010909 
-0.024526 0.030075 0.417771 -0.372286 0.524360 0.765800 
-0.008083 0.233430 0.255305 -0.261337 0.893199 -0.365922 
0.056541 0.205006 0.280216 0.678667 0.399312 0.616410 
0.017967 0.015380 0.447224 0.024444 0.993772 0.108720 
0.114190 -0.237099 0.081431 0.698912 -0.562220 0.442075 
-0.053585 0.046433 0.454114 -0.085896 0.664247 -0.742562 
-0.071652 -0.354861 -0.381300 0.439162 -0.898322 -0.012461 
-0.119783 -0.259107 -0.364723 -0.574707 -0.470284 0.669734 
-0.123285 0.071712 0.113257 -0.915025 0.364235 -0.173384 
0.114359 -0.347797 -0.293912 0.586406 -0.190283 0.787350 
-0.067343 0.227390 0.225707 -0.472589 0.695886 -0.540742 
0.047776 0.217159 0.213709 -0.113062 0.531650 -0.839384 
0.022983 -0.052437 0.460454 0.399155 -0.474504 0.784551 
-0.157933 -0.325092 -0.332570 -0.072801 0.944277 0.321001 
-0.024174 0.019526 0.434992 0.155492 0.840784 0.518560 
-0.054001 0.250365 0.427063 -0.550480 -0.676379 -0.489370 
0.035379 0.204164 0.207804 -0.069465 0.561061 -0.824855 
-0.153316 -0.146609 0.090628 -0.922928 -0.248716 0.293845 
-0.060595 -0.301059 -0.366339 0.835967 0.461971 0.296214 
0.128305 -0.335461 -0.293123 -0.402300 0.541683 0.738061 
-0.099807 -0.330253 0.114300 0.280512 0.649502 0.706725 
-0.046038 -0.211767 -0.031184 -0.415426 -0.863148 0.287048 
0.043000 -0.280304 0.009099 -0.594562 0.023242 -0.803714 
-0.001041 -0.113283 0.243662 -0.008157 -0.571153 0.820803 
-0.047186 0.043131 0.453527 0.607385 0.584530 -0.537967 
0.101535 0.025070 0.243006 0.937693 -0.076245 0.338995 
-0.132273 -0.057530 0.171005 -0.970122 -0.102954 0.219691 
0.029509 -0.128417 -0.453786 -0.412220 -0.692994 -0.591468 
0.031970 -0.128564 -0.455491 -0.490761 -0.632235 -0.599528 
0.023908 -0.126199 -0.454183 -0.091626 -0.777216 -0.622527 
0.061398 -0.261833 -0.423074 -0.839032 -0.410859 -0.356678 
0.140638 -0.359602 -0.316192 0.245455 -0.967243 -0.064749 
-0.074343 -0.346507 -0.298325 0.614344 -0.116154 0.780442 
0.055389 0.062646 0.479790 0.566669 -0.047024 0.822602 
-0.059789 -0.303957 -0.364032 0.818720 0.491419 0.296994 
0.046405 -0.338082 -0.306528 -0.902082 0.258015 0.345941 
-0.084045 0.319754 0.431959 -0.856301 0.493467 -0.152445 
0.046459 0.027650 0.468981 -0.555160 -0.356512 0.751463 
-0.077106 -0.019011 0.437819 -0.788184 -0.218620 0.575301 
0.044045 -0.036410 0.302052 0.425553 -0.303305 0.852591 
0.060773 -0.262944 -0.420048 -0.882215 -0.381513 -0.275944 
0.048826 -0.037075 0.299300 0.478085 -0.301700 0.824871 
-0.033368 -0.026499 0.316803 -0.348603 -0.713434 0.607855 
0.127874 0.022080 0.155623 0.885114 0.158787 0.437447 
-0.045732 0.025156 0.467110 0.615285 -0.311093 0.724324 
-0.168506 -0.120758 -0.108748 -0.969468 -0.223369 0.101183 
-0.033742 0.151239 0.102291 -0.224055 0.973120 0.053268 
0.165776 -0.134392 -0.297961 0.970611 -0.053156 0.234710 
0.018775 0.223534 0.235444 0.253346 0.907787 -0.334274 
0.008404 -0.038445 0.467093 0.246699 0.417005 0.874784 
-0.105038 -0.358675 -0.315441 -0.134245 -0.990924 -0.006885 
-0.072527 -0.268162 0.085430 -0.016474 -0.506908 0.861843 
-0.102305 -0.358510 -0.325972 -0.034888 -0.998497 -0.042257 
0.055095 0.184298 0.183275 -0.535878 0.285985 0.794385 
-0.037179 0.220245 0.222758 0.606087 0.670411 -0.428029 
0.058660 -0.183825 0.164724 0.365291 -0.758721 0.539356 
-0.047611 0.031990 0.423182 -0.075902 0.978926 0.189586 
0.057914 -0.326570 -0.308553 -0.126942 0.921903 0.366035 
0.064194 -0.218602 -0.357346 -0.741172 -0.646382 -0.181261 
0.167481 -0.181376 -0.330173 0.939613 -0.204566 0.274373 
0.071758 0.130045 -0.027111 0.572097 0.811128 -0.121554 
0.029629 -0.136975 -0.444379 -0.520689 -0.633410 -0.572429 
-0.043257 0.216918 0.350605 -0.510258 -0.673439 0.534898 
0.084975 0.283325 0.471942 0.825385 -0.053951 0.561987 
-0.160444 -0.114827 0.078994 -0.988588 0.014722 0.149922 
-0.009838 -0.050602 0.465841 -0.190900 -0.439415 0.877765 
0.029673 0.222906 0.253098 -0.072664 0.997294 0.011189 
0.126854 0.019318 0.158851 0.927669 0.112124 0.356171 
-0.050877 0.020616 0.466270 -0.112853 -0.530690 0.840019 
-0.054376 -0.019023 0.447554 -0.179971 -0.001073 0.983671 
0.029973 0.245007 0.417255 0.018510 -0.912336 0.409023 
0.100136 -0.230036 0.023480 0.325037 -0.369481 -0.870537 
-0.072666 -0.355173 -0.385239 0.408512 -0.909850 -0.072739 
0.095233 -0.252443 0.086966 0.509598 -0.538718 0.670889 
0.171490 -0.336413 -0.320679 0.583078 0.568633 0.580238 
-0.092206 0.139768 0.277775 -0.913583 0.400843 0.068492 
0.067518 -0.148024 -0.464559 -0.234536 -0.597830 -0.766546 
0.060868 0.179767 0.181544 0.985441 0.167988 0.026190 
-0.106058 0.092749 0.159208 -0.839015 0.543973 -0.012088 
-0.153758 -0.191452 -0.302652 -0.835842 -0.379562 0.396612 
0.106148 -0.213425 -0.268454 0.281178 -0.951145 -0.127519 
-0.038943 0.212918 0.213208 0.315963 0.592367 -0.741126 
0.120875 -0.209494 -0.227679 0.601473 -0.798818 -0.010939 
0.079102 0.121004 -0.190537 0.615070 0.788410 -0.009928 
0.121364 0.058391 0.153499 0.968445 0.240251 -0.066289 
-0.079110 -0.227493 -0.468953 0.635947 -0.458857 -0.620501 
0.034373 0.358418 0.434930 0.585946 0.770719 -0.250321 
-0.123197 -0.320082 -0.311983 0.251678 0.698718 0.669665 
0.060610 0.181320 0.179882 0.995208 0.093865 -0.027406 
0.035499 0.212931 0.348474 0.111215 -0.703778 0.701661 
-0.067849 0.191566 0.272997 -0.802294 0.390202 0.451739 
-0.029662 0.195620 0.340134 -0.187125 -0.244767 0.951353 
0.002632 0.032443 -0.481517 0.154636 0.491367 -0.857115 
-0.099109 0.116774 0.230824 -0.876192 0.416355 -0.242767 
-0.150167 -0.052757 0.093391 -0.944859 0.095804 0.313150 
0.140690 -0.132019 0.123060 0.835481 -0.099840 0.540373 
-0.148075 -0.167267 -0.113952 -0.798505 -0.584588 0.143688 
0.135457 -0.174801 -0.088823 0.701765 -0.669052 0.244737 
0.020844 0.155344 -0.091628 0.322148 0.946688 0.001311 
-0.089858 0.114804 0.172343 -0.775143 0.631671 -0.012062 
-0.172340 -0.060513 -0.137163 -0.986770 0.154289 0.049790 
-0.043908 0.006192 0.454937 0.313300 -0.417538 0.852939 
0.091856 -0.286832 -0.431987 -0.070006 -0.558534 -0.826522 
-0.030423 0.221966 0.238736 0.195349 0.962015 -0.190698 
-0.052307 0.348512 0.423219 -0.374480 0.911353 -0.170881 
0.038283 -0.208716 0.006489 -0.029435 -0.998326 0.049791 
-0.099597 -0.309884 0.088431 -0.585026 0.759915 0.283326 
0.006695 -0.036826 0.466598 0.202532 0.573812 0.793549 
0.116474 -0.340392 -0.296076 0.065297 0.402557 0.913063 
-0.017464 -0.019682 -0.489413 0.092353 0.182042 -0.978944 
0.066468 0.258209 0.416990 -0.846351 -0.239324 0.475829 
-0.104647 -0.319922 0.101541 -0.365589 0.840450 0.399986 
-0.040314 0.016372 -0.481087 -0.071935 0.495816 -0.865443 
0.155405 -0.322174 -0.350175 0.503998 0.863471 -0.020089 
-0.068714 -0.207026 0.124446 -0.170866 -0.889490 0.423807 
0.030953 0.150600 -0.050227 0.371836 0.928226 0.011569 
0.081678 -0.205904 -0.470628 -0.652388 0.427967 -0.625488 
-0.075340 0.301555 0.481090 -0.702740 0.202774 0.681938 
-0.056729 -0.209146 -0.008448 0.046785 -0.575069 -0.816766 
-0.060014 -0.202622 -0.014158 -0.276266 -0.848842 -0.450715 
0.118424 -0.125610 0.151161 0.786510 -0.234288 0.571412 
-0.051567 -0.201017 -0.373277 0.435024 -0.767832 -0.470306 
0.095514 -0.255964 0.083764 0.562286 -0.546157 0.620925 
-0.063097 -0.162605 -0.450877 0.331037 -0.640954 -0.692526 
0.077554 -0.128373 -0.481658 -0.106060 -0.455413 -0.883940 
0.015049 -0.028868 0.326195 0.345753 -0.937773 -0.032209 
0.121261 -0.005565 0.187177 0.975694 -0.207534 0.070363 
-0.129791 -0.259827 -0.379636 -0.933121 -0.148565 0.327434 
-0.122062 0.076062 0.120569 -0.890905 0.453245 0.029295 
-0.079020 0.124388 0.072329 -0.631777 0.774442 -0.033136 
-0.068298 0.135720 0.002064 -0.523147 0.850584 -0.053144 
0.061433 0.201597 0.163536 -0.242879 0.962197 0.123230 
0.154323 -0.216300 -0.378782 0.867420 -0.497125 -0.021195 
0.059679 0.233680 0.230021 0.159055 0.885152 -0.437272 
-0.010898 -0.033956 0.462209 -0.229307 0.811296 0.537789 
0.012213 0.000659 0.452020 -0.553180 -0.538780 0.635381 
-0.085956 -0.319749 -0.310292 0.603643 0.646093 0.467096 
0.121390 0.077995 0.118069 0.890783 0.452932 -0.036863 
-0.067767 -0.346340 -0.396125 0.789662 -0.354226 -0.500958 
-0.066678 -0.343866 -0.395793 0.832077 -0.231497 -0.504041 
-0.056414 -0.001950 0.327128 -0.622173 -0.666919 0.410024 
-0.092861 -0.322341 -0.300156 0.158920 0.840452 0.518059 
-0.069804 -0.326147 -0.315321 -0.316984 0.835215 0.449375 
-0.083306 0.254072 0.427278 -0.509677 -0.858674 0.053927 
-0.091257 -0.323962 -0.298179 0.268930 0.827422 0.493000 
-0.088317 -0.324968 -0.298785 0.454003 0.768977 0.450061 
0.058859 0.062522 0.381936 0.679404 0.450545 0.579154 
-0.057858 0.288575 0.493217 -0.177042 -0.298668 0.937792 
0.108290 -0.216816 -0.238999 0.477823 -0.872286 -0.103930 
-0.059392 0.283557 0.490516 0.029056 -0.617678 0.785894 
-0.020203 -0.050340 0.462703 -0.365837 -0.375903 0.851387 
0.148650 -0.124344 0.012493 0.910066 -0.369381 -0.187980 
0.007850 0.087716 0.368531 0.232051 0.911805 0.338769 
-0.073241 0.317347 0.475515 -0.708896 0.418183 0.567970 
0.089425 0.085740 -0.378641 0.563572 0.747691 -0.351205 
0.119670 -0.209881 -0.241899 0.539140 -0.841596 -0.032329 
0.101596 -0.352974 0.118591 -0.383936 -0.730029 0.565376 
0.135758 -0.359869 -0.302040 0.042748 -0.987426 0.152192 
-0.043789 0.291399 0.493598 0.295638 -0.744554 0.598530 
-0.172370 -0.083734 -0.108467 -0.997451 0.008218 0.070874 
-0.065254 0.157564 0.151222 0.381536 -0.409872 -0.828514 
0.103186 -0.220008 -0.235485 0.461685 -0.879533 -0.115189 
-0.117882 -0.239874 -0.323790 -0.169642 -0.913389 0.370056 
0.051952 -0.345948 -0.293733 -0.675323 0.023646 0.737143 
-0.050543 0.014679 0.462228 -0.155680 -0.581909 0.798214 
0.158199 -0.042856 0.060447 0.986242 0.066805 0.151205 
0.127894 -0.358375 -0.299487 -0.272572 -0.925756 0.262068 
-0.058442 0.019446 0.459291 -0.792157 -0.398377 0.462367 
-0.033565 -0.223759 0.065923 0.388544 -0.920557 0.040107 
0.130859 -0.358736 -0.298074 -0.184331 -0.949243 0.254871 
0.157079 -0.212186 -0.376903 0.806479 -0.580772 -0.110883 
-0.122932 0.067779 0.106137 -0.911891 0.318339 -0.259065 
-0.013893 0.014668 0.446269 0.319160 0.926189 0.200777 
-0.021203 0.108170 0.357902 0.944281 0.030970 0.327680 
-0.036675 0.345227 0.421610 -0.049157 0.617054 0.785384 
-0.050361 0.025836 0.469430 0.015691 -0.476764 0.878891 
0.160809 -0.116561 -0.053033 0.916184 -0.329847 0.227615 
0.052298 -0.353679 0.086095 0.002796 -0.993912 -0.110145 
0.125872 0.029672 0.191068 0.993388 -0.021123 0.112847 
-0.155501 -0.154117 0.071677 -0.934191 -0.331982 0.130668 
0.070436 0.247896 0.416735 -0.292747 -0.778584 0.555073 
0.069168 0.247605 0.415621 -0.327399 -0.743618 0.582960 
-0.103486 0.091264 -0.327084 -0.653513 0.740964 -0.154575 
-0.099576 -0.271090 0.043603 -0.959234 -0.210655 -0.188398 
0.071119 0.246407 0.413639 0.141544 -0.951144 0.274392 
-0.161858 -0.151849 -0.430956 -0.810492 -0.067247 -0.581878 
-0.171521 -0.083296 -0.096553 -0.997499 0.001197 0.070672 
0.028128 0.016651 0.439441 -0.315870 0.667983 0.673813 
0.087096 -0.189453 -0.466104 -0.397856 0.301151 -0.866613 
0.046114 -0.350567 -0.340749 -0.910672 -0.386487 -0.145959 
0.126374 0.032155 0.184626 0.999213 -0.017559 0.035556 
0.033487 -0.289679 0.057363 -0.932033 0.139540 0.334429 
0.028678 -0.344726 0.061233 -0.630523 -0.608088 -0.482358 
-0.078101 -0.356724 -0.306487 0.361594 -0.919348 0.155078 
0.047282 -0.217191 0.004633 -0.851735 -0.354514 -0.385834 
-0.107461 -0.354776 0.080605 -0.020792 -0.993884 -0.108453 
0.044278 -0.346275 -0.332632 -0.986417 -0.145589 -0.076066 
-0.094958 -0.302458 -0.327128 0.083557 0.804724 0.587739 
0.174030 -0.120590 -0.172734 0.979073 -0.196304 0.053670 
0.117788 -0.119742 0.155968 0.890744 -0.324571 0.318164 
0.115022 -0.119564 0.169148 0.884383 -0.434179 0.171332 
0.088794 -0.335001 0.116408 0.503332 0.644980 0.575028 
-0.059041 0.175669 0.187380 -0.113748 0.233057 0.965788 
-0.023994 -0.217489 -0.015002 -0.441864 -0.867134 0.229859 
0.045696 -0.348431 -0.342051 -0.956777 -0.224510 -0.184861 
0.035657 -0.224771 0.058638 -0.713864 -0.698154 -0.054576 
-0.054359 0.081275 0.375712 -0.633385 0.302780 0.712143 
-0.151744 -0.334875 -0.319312 -0.367020 0.743573 0.558924 
-0.141763 -0.324753 -0.319215 -0.765338 0.635120 0.104309 
-0.047920 -0.228688 0.009381 0.845234 -0.129278 -0.518523 
-0.086464 0.013227 0.283751 -0.759553 -0.280591 0.586812 
0.118021 -0.122802 0.153119 0.841000 -0.273558 0.466781 
0.031739 -0.234637 -0.070594 0.313323 -0.899992 0.303057 
-0.020216 0.107251 0.351686 0.999861 0.001508 0.016607 
0.145636 -0.316638 -0.377906 0.872129 0.389881 -0.295606 
-0.043555 -0.338847 -0.323797 0.962234 0.261962 -0.074036 
0.039750 -0.302979 0.018394 -0.868125 -0.111543 -0.483649 
0.123295 -0.354637 -0.378426 0.264410 -0.948368 -0.175171 
-0.061952 -0.201706 -0.022889 -0.390959 -0.897181 0.205468 
0.152867 -0.004671 -0.225321 0.926101 0.374205 -0.048035 
0.061816 0.103449 -0.374950 0.368233 0.851439 -0.373438 
0.059368 0.170767 0.331072 0.755553 0.340959 0.559362 
-0.068786 -0.221426 -0.457424 0.786018 -0.071268 -0.614082 
-0.103074 0.114013 0.255209 -0.946066 0.323970 -0.001730 
-0.031431 -0.056692 0.451928 -0.398561 -0.703042 0.588967 
0.063843 -0.193957 0.144689 0.261075 -0.767932 0.584910 
-0.102219 0.099687 -0.146574 -0.731036 0.682336 0.002072 
-0.108488 -0.318351 0.072829 -0.586851 0.797458 0.140241 
-0.098360 0.020481 0.252064 -0.967152 -0.216213 0.133672 
0.098240 0.102141 -0.060714 0.752051 0.659104 -0.001062 
0.112065 0.082953 0.175195 0.856886 0.511886 0.060985 
-0.106747 0.100879 0.255931 -0.974850 0.220307 0.033658 
-0.158680 -0.129920 0.083928 -0.961927 -0.120322 0.245396 
0.004943 -0.001768 0.446660 -0.285996 0.130183 0.949346 
-0.120492 -0.039509 0.193926 -0.779508 0.231972 0.581856 
-0.120808 0.053483 0.197904 -0.882108 0.285089 0.374979 
0.103427 0.068933 0.284696 0.923938 -0.129243 0.360048 
0.163971 -0.340504 -0.315920 -0.082897 0.422508 0.902560 
-0.100428 -0.269438 0.054439 -0.898926 -0.421759 0.118538 
-0.088188 -0.200719 0.126578 -0.288120 -0.899825 0.327569 
-0.098965 -0.270382 0.059041 -0.849054 -0.468010 0.245102 
0.051811 -0.249795 0.084484 -0.606859 -0.300769 0.735703 
0.016982 -0.035476 0.461150 0.320614 0.704876 0.632737 
0.102601 0.075096 0.288797 0.921054 -0.104890 0.375045 
0.039363 -0.213035 0.022566 -0.669413 -0.574681 -0.470775 
0.130745 -0.186452 -0.111137 0.686835 -0.703283 0.183443 
-0.072957 -0.033297 0.279610 -0.741825 -0.251157 0.621784 
-0.125142 -0.000541 0.169444 -0.906928 0.128469 0.401220 
-0.100438 -0.322872 -0.419439 -0.168582 -0.122638 -0.978029 
-0.122683 -0.044581 -0.456249 -0.736161 0.292042 -0.610556 
0.105177 0.075261 0.281924 0.944280 -0.082803 0.318557 
-0.080757 0.183697 0.146463 -0.948581 0.052312 0.312180 
0.124013 0.072560 0.027095 0.900487 0.434790 -0.008940 
0.076540 0.027759 0.401660 0.709384 0.622450 0.330651 
-0.057859 0.152575 0.156723 0.441313 0.234262 -0.866236 
-0.077862 0.163470 0.148416 -0.703553 -0.477103 -0.526674 
-0.078204 0.203289 0.226944 -0.999117 0.001201 0.041988 
-0.113664 -0.320745 0.071965 -0.323655 0.902394 0.284485 
